-9.5416 -3.5343 -0.26176
-9.9164 -3.4426 -0.54659
-9.2426 -3.5063 -0.4428
-9.2562 -2.8586 -0.13107
-9.2656 -3.0082 0.088046
-9.5872 -3.368 -0.50832
-9.3417 -2.8163 -0.31041
-9.151 -2.8884 -0.44511
-9.4716 -2.6966 -0.37625
-9.1679 -2.9469 -0.33606
-9.3413 -2.6423 -0.11314
-9.4941 -2.1073 -0.085638
-9.6276 -2.3849 -0.45291
-9.1629 -2.0952 -0.23446
-9.1825 -2.043 -0.31144
-9.1555 -2.3728 -0.041658
-9.7458 -1.9944 -0.37931
-9.4462 -2.216 -0.18971
-9.3557 -1.9016 -0.14019
-9.5338 -1.9023 -0.088682
-9.4161 -1.3372 -0.11095
-9.5948 -1.4188 0.10909
-9.6304 -1.3666 -0.39669
-9.2534 -1.3625 0.22774
-9.3039 -1.0371 0.077705
-9.6579 -1.2795 -0.26263
-9.3914 -1.2353 0.063162
-9.3714 -0.80549 0.26773
-9.474 -0.5422 0.041186
-9.1824 -0.84034 -0.13099
-9.4137 -0.675 0.69653
-9.3031 -0.36404 0.40081
-9.3635 -0.5728 -0.38368
-9.4018 -0.25725 -0.091701
-9.158 0.019488 0.77858
-9.1184 -0.25849 0.166
-9.5579 0.091983 0.25314
-9.3496 0.15597 0.0022063
-9.1665 0.22817 0.21936
-9.4586 0.1933 0.29443
-9.4763 0.29182 -0.26064
-9.2543 0.42084 0.036905
-9.2384 0.73926 -0.097759
-9.5774 1.1278 0.1749
-9.261 0.93363 -0.064417
-9.5532 0.79507 0.21101
-9.499 0.91298 -0.20173
-9.2686 1.1574 -0.20471
-9.3591 1.1099 -0.064133
-9.4129 1.2808 -0.026822
-9.4076 1.5481 -0.3038
-9.2548 1.5516 -0.048921
-9.4214 1.4408 -0.11653
-9.0126 1.5563 -0.33941
-9.0832 1.5938 -0.55088
-9.4788 1.9691 -0.23662
-9.4839 1.9162 -0.471
-9.3919 2.0932 -0.1903
-9.4109 2.4933 -0.48743
-9.6293 2.5914 -0.33217
-9.4783 2.2897 -0.54177
-9.3961 2.7145 -0.37751
-9.4358 2.7053 -0.65187
-9.2352 2.4738 -0.70106
-9.4237 2.9274 -0.12067
-9.6634 2.8982 -0.45275
-9.2333 2.8514 -0.36902
-9.2305 3.1827 -0.51324
-9.1183 3.3104 -0.43722
-8.9752 3.543 -0.50704
-9.5353 3.3675 -0.37395
-9.3204 3.2948 -0.26786
-9.2145 3.6481 -0.1709
-9.4971 3.8663 -0.71059
-9.3581 3.8917 -0.63849
-9.496 4.0248 -0.64693
-9.3959 4.116 -0.16044
-9.557 4.1291 -0.11312
-9.3652 4.2062 0.35808
-9.7025 4.4141 -0.4046
-9.3956 4.3387 -0.0015005
-9.463 4.8081 0.044476
-9.512 4.5804 -0.0085752
-9.2871 4.7913 -0.091179
-9.3944 5.0707 -0.17969
-9.4931 4.8594 -0.14423
-9.1489 4.9736 -0.19483
-9.3566 5.319 -0.2556
-9.1105 5.1056 -0.24292
-9.4044 5.7409 0.069042
-9.276 5.4921 -0.022276
-9.4893 5.5498 0.074778
-9.2107 5.5129 0.10948
-9.3488 5.5646 0.13816
-9.8905 5.5145 0.075871
-9.3598 5.7583 -0.1969
-9.4553 6.0975 -0.25544
-9.5048 6.0734 0.096123
-9.5404 6.19 -0.0022108
-9.2077 6.1625 0.20365
-9.659 6.2201 0.25868
-9.0163 6.4916 0.3241
-9.4305 6.6502 -0.33798
-9.6529 6.6194 0.63998
-9.346 6.8617 0.51127
-9.4994 6.6915 -0.093398
-9.3238 6.9662 -0.22005
-9.5831 7.2233 0.15708
-9.3275 7.1373 -0.25489
-9.3072 7.6618 0.061694
-9.7506 7.1898 -0.22981
-9.4199 7.2733 0.12876
-9.5234 7.8001 -0.22156
-9.3667 7.4719 -0.58655
-9.3905 7.9048 -0.062971
-9.3818 8.2485 0.045582
-9.5039 8.1349 -0.253
-9.3722 7.909 -0.1067
-9.3073 8.3158 -0.48449
-9.523 8.2662 -0.5449
-9.6357 8.28 -0.046917
-9.3913 8.2226 -0.15909
-9.3041 8.8844 -0.25157
-9.3449 8.7207 -0.5926
-9.3357 8.744 -0.11093
-9.2748 8.8446 -0.34824
-9.4616 9.1464 -0.57176
-9.5417 9.26 -0.26898
-9.4258 9.2115 -0.60787
-9.5314 9.4203 -0.39997
-9.2732 9.2342 -0.083065
-9.4796 9.5529 -0.53096
-9.4854 9.6848 -0.42363
-9.557 10.028 0.0035369
-9.4281 9.6387 -0.54979
-9.675 9.9388 -0.20186
-9.3563 9.958 -0.30386
-9.3522 10.324 -0.25724
-9.8916 10.209 -0.39626
-9.1372 10.648 -0.19225
-9.6226 10.247 -0.0908
-9.4627 10.598 -0.4778
-9.2604 11.051 -0.23705
-9.2682 11.061 -0.013252
-9.4716 10.564 -0.085325
-9.4856 10.709 0.10906
-9.1907 11.137 -0.33974
-9.3241 11.18 0.35586
-9.4263 11.186 0.39663
-9.4094 11.089 -0.065194
-9.1617 11.52 0.029619
-9.3815 11.183 -0.1359
-9.1874 11.545 0.13686
-9.3365 11.581 0.042359
-9.3479 11.836 0.25984
-9.5206 11.663 -0.32123
-9.2041 12.013 0.38039
-9.6176 12.215 0.064656
-9.4087 12.298 0.13982
-9.3706 11.955 0.059164
-9.3866 12.289 0.22172
-9.5316 12.601 0.3183
-9.6262 12.689 0.29545
-9.8237 12.631 0.10268
-9.5575 12.914 0.26416
-9.632 12.825 0.21182
-9.4657 12.832 0.10228
-9.2876 13.129 -0.078916
-9.6319 13.561 0.093631
-9.338 12.821 0.15782
-9.3471 13.674 0.17314
-9.6936 13.522 -0.11696
-9.5331 13.701 0.33372
-9.2507 13.785 -0.017648
-9.2317 13.887 0.27519
-9.3976 13.867 -0.59983
-9.3661 14.044 0.11023
-9.9562 14.206 -0.27107
-9.5839 14.216 -0.32632
-9.1205 14.357 -0.1701
-9.4943 14.458 0.16012
-9.0528 14.35 -0.15907
-9.4159 14.457 -0.4027
-9.0736 14.877 -0.43894
-9.3124 14.735 -0.44981
-8.8932 14.902 -0.31794
-9.1548 -14.792 -0.011579
-9.1947 -14.965 -0.30476
-9.0488 -15.077 -0.43168
-9.2487 -14.876 -0.39422
-9.0546 -14.682 -0.071171
-9.273 -15.009 -0.44678
-9.5473 -14.465 -0.44522
-9.5586 -14.866 -0.11515
-9.2333 -14.433 -0.80666
-9.5784 -14.112 -0.17079
-8.9474 -13.823 -0.23828
-9.1841 -14.374 0.011975
-9.3781 -14.03 0.29313
-9.1238 -13.943 -0.024925
-9.5949 -13.789 -0.23303
-9.4486 -13.6 -0.040419
-9.6138 -13.337 0.14455
-9.5206 -13.511 0.12957
-9.1503 -13.002 -0.12488
-9.4785 -13.291 0.35904
-9.2366 -12.707 0.040651
-9.2851 -13.297 0.16724
-9.3333 -12.999 -0.42904
-9.1188 -12.982 0.50267
-9.4982 -12.945 0.15348
-9.2937 -12.567 -0.048359
-9.1809 -12.527 0.10662
-9.5263 -12.695 -0.0066009
-9.317 -12.39 -0.073661
-9.5157 -12.273 0.15048
-9.0971 -11.918 -0.10874
-9.4139 -11.73 0.05881
-9.2497 -12.033 -0.33556
-9.3365 -11.935 -0.063102
-9.3123 -11.459 -0.32191
-9.4365 -11.574 -0.1149
-9.0995 -11.378 0.15451
-9.5264 -11.576 0.37554
-8.9892 -11.232 -0.43605
-9.547 -11.146 0.017574
-9.447 -11.276 -0.22172
-9.5654 -10.946 -0.01453
-9.4691 -10.531 -0.080775
-9.2591 -11.025 -0.23838
-9.1603 -10.757 -0.12477
-9.4401 -10.214 -0.64365
-9.4602 -10.617 0.086605
-9.326 -10.35 -0.22826
-9.3745 -10.169 -0.39586
-9.524 -10.348 -0.53962
-9.2198 -9.9445 -0.17051
-9.4394 -10.409 -0.52674
-9.7256 -9.6766 -0.68846
-9.4939 -9.857 -0.8538
-9.0236 -9.6252 -0.20446
-9.163 -9.4883 -0.34431
-9.4644 -9.5272 0.24755
-9.3846 -9.8518 -0.017277
-9.4503 -9.5264 -0.20635
-9.6209 -8.8018 -0.58874
-9.4439 -9.0872 0.058839
-9.0659 -8.9645 -0.15249
-9.6371 -9.0004 -0.48043
-9.3411 -8.7931 -0.3482
-8.9885 -8.7243 -0.53634
-9.4485 -8.9602 -0.47114
-8.8935 -8.7316 -0.28443
-9.1973 -8.4403 -0.19178
-9.4078 -7.6975 -0.17526
-9.2893 -8.5073 0.13905
-9.195 -8.0904 -0.50271
-9.3039 -7.8644 -0.31041
-9.2802 -8.1404 -0.096371
-9.2372 -7.6496 -0.050553
-9.7284 -7.7765 0.054659
-9.276 -7.7808 0.14995
-9.6284 -7.6479 -0.15311
-9.1613 -7.3577 0.19025
-9.0975 -6.938 -0.50113
-9.6348 -7.1541 0.16638
-9.3416 -6.9584 0.049923
-9.1858 -6.9018 -0.23387
-9.5233 -6.6745 -0.014451
-9.3655 -6.7654 0.23126
-8.996 -6.5863 -0.088973
-9.1442 -6.754 0.11268
-9.1349 -6.6157 0.19827
-9.6145 -6.6493 0.17732
-9.6486 -6.5262 -0.085218
-9.3479 -6.196 0.00072706
-9.6573 -6.0862 0.33289
-9.2353 -6.2696 0.02506
-9.1187 -5.7999 -0.14601
-8.9904 -6.1663 -0.14411
-9.4455 -5.8137 -0.10288
-9.5501 -5.3346 0.019619
-9.2435 -5.5286 0.12409
-9.3161 -5.4249 0.14669
-9.3633 -5.1944 0.37018
-8.9165 -5.4622 -0.13332
-9.7127 -5.0197 -0.28413
-9.3993 -5.0733 -0.080868
-9.6432 -4.8697 0.17241
-9.6326 -4.9114 -0.11838
-9.4762 -4.4177 -0.084125
-9.0775 -4.5567 -0.22383
-9.6771 -4.5078 -0.29059
-9.3134 -4.5881 -0.25407
-9.0823 -4.1496 -0.49572
-9.2951 -3.8757 -0.2445
-9.5657 -4.1554 -0.41861
-9.4521 -3.7592 -0.36169
-9.5039 -4.1948 0.078989
-9.0095 -3.8137 -0.1655
-9.6278 -3.4097 -0.16802
-9.2126 -3.6887 -0.22299
-9.2867 -3.7899 -0.42557
-9.3219 -3.3251 -0.41734
-9.0597 -3.722 -0.42558
-9.6902 -3.3519 -0.40023
-9.0362 -2.9406 -0.86941
-9.2193 -2.8373 -0.28726
-9.2896 -2.7361 -0.59878
-9.7214 -2.7068 -0.54994
-9.8723 -2.6422 -0.36254
-9.8272 -2.4213 -0.29253
-9.2308 -2.7031 -0.25041
-9.0074 -1.9787 -0.39742
-9.3778 -2.3534 -0.16143
-9.3694 -2.2474 -0.44339
-9.3357 -1.9867 -0.57413
-9.2014 -1.9637 -0.18542
-9.3189 -1.6792 -0.1439
-9.0972 -2.1359 -0.49068
-9.5524 -2.0132 -0.042976
-9.2948 -1.4617 0.1127
-9.1594 -1.2848 -0.067156
-9.1273 -1.5061 -0.25519
-9.3221 -1.6396 0.091302
-9.5911 -1.2173 -0.17766
-9.1665 -0.84608 0.18746
-9.4211 -0.88518 -0.046923
-9.3924 -0.76311 -0.089243
-9.5286 -0.5344 -0.13709
-9.464 -0.89428 0.058133
-9.235 -0.70736 0.18744
-9.004 -0.26709 -0.16117
-9.3553 -0.58355 -0.058576
-9.1927 -0.31128 -0.085686
-9.0014 0.15726 0.20672
-9.1061 -0.20659 0.031143
-9.4411 0.12805 0.14673
-9.0792 0.25661 0.26084
-9.0952 0.041263 -0.17049
-9.1033 0.039896 -0.10148
-9.4633 0.2238 0.084612
-9.5265 0.78416 0.30545
-9.4162 0.68185 -0.16827
-9.4147 0.99077 0.23394
-9.1615 0.90945 0.27696
-9.1911 0.97646 -0.011965
-9.3227 1.2273 0.38491
-9.1973 1.2051 0.10758
-9.3331 1.184 -0.39665
-9.5111 1.2317 -0.26217
-9.2012 1.6183 0.077554
-9.2623 1.5181 -0.24897
-9.457 1.8045 -0.26009
-9.5141 1.6198 0.28463
-9.2665 1.9406 -0.44927
-9.3752 1.7418 -0.086224
-9.1075 1.8688 -0.14254
-9.4255 2.1003 -0.33548
-9.3303 2.2591 0.0041305
-9.7476 2.3488 -0.204
-9.7983 2.6272 -0.39394
-9.3533 2.5496 -0.2469
-9.242 2.6083 -0.60428
-9.0368 2.8812 -0.47652
-9.0314 2.9965 -0.23802
-9.3942 2.8101 -0.14899
-9.3415 2.6177 -0.50373
-9.5875 3.2143 -0.66855
-9.2185 3.0904 -0.5102
-9.5007 3.8651 -0.34793
-9.217 3.5203 -0.39773
-8.9918 3.4535 -0.17584
-9.5126 3.0877 -0.18081
-9.203 3.9944 -0.10666
-9.3164 3.5199 -0.53148
-9.3417 3.9534 -0.58909
-9.5882 3.7244 -0.1777
-9.5702 4.2171 -0.48653
-9.5763 4.2559 -0.14922
-9.3437 4.3918 -0.39647
-9.4559 4.3482 -0.15683
-9.2926 4.5908 -0.27749
-9.0099 4.411 -0.28756
-9.1146 4.5106 -0.097759
-9.3689 4.6545 -0.15248
-9.3064 4.8187 -0.26539
-9.5377 5.2498 0.26853
-9.2498 5.1397 0.26128
-9.3039 4.9551 0.0397
-9.7087 5.1639 -0.23853
-9.3472 5.2406 0.11146
-9.1395 5.888 -0.12267
-9.0778 5.413 -0.019378
-9.3317 5.7586 0.29982
-9.2384 5.7309 0.11679
-9.2443 5.7539 0.028583
-9.1842 5.9319 0.069894
-9.2472 6.0092 0.49706
-9.0341 5.9915 0.11977
-9.4411 6.503 -0.17603
-9.6933 6.567 0.0047759
-9.4007 6.4899 -0.007956
-9.3389 6.6375 0.20983
-8.9895 7.1028 0.2177
-9.1664 6.7467 0.050976
-9.2988 7.0666 -0.0029664
-9.4325 6.8402 0.41248
-9.2708 7.0592 -0.22451
-9.0196 7.3902 -0.28765
-9.1419 7.5091 0.24945
-9.1299 7.6299 -0.1275
-9.5302 7.858 -0.16407
-9.1111 7.5515 0.42604
-9.2401 7.6695 -0.016353
-9.4463 7.509 -0.26576
-9.1103 7.9798 -0.27723
-9.7439 8.5377 0.11887
-9.528 7.8809 0.16493
-9.2291 7.9743 -0.43022
-9.3871 7.9242 -0.59235
-9.2222 8.2938 -0.48908
-9.3731 8.3227 -0.37798
-9.5898 8.3193 -0.045227
-9.3555 8.8195 -0.41198
-9.4973 8.6263 -0.47187
-8.7566 8.7585 -0.48942
-9.3475 9.1822 -0.61724
-9.2293 9.2188 -0.59204
-9.3063 9.2882 -0.015509
-9.2134 9.5349 -0.50945
-9.3576 9.5484 -0.53349
-8.9063 9.6639 -0.3507
-9.2444 9.5123 -0.025115
-9.5069 9.7953 -0.27861
-9.0033 9.9799 -0.5001
-9.3411 10.087 -0.46912
-9.4056 9.9208 -0.45858
-9.4066 9.5251 -0.37336
-9.4841 10.258 -0.47367
-9.2011 10.559 -0.24519
-9.6524 10.506 -0.12691
-9.4953 10.383 -0.32378
-9.3055 10.569 -0.118
-9.0375 10.743 -0.11886
-9.4288 10.86 0.35887
-9.2952 10.839 -0.56659
-9.8543 10.608 -0.15153
-9.1755 11.167 -0.48919
-9.2745 11.086 -0.15115
-9.1222 11.516 0.32021
-9.5585 11.158 0.03676
-9.2436 11.561 -0.1876
-9.6242 11.645 -0.26402
-9.3066 11.711 -0.25721
-9.2854 11.803 0.45656
-9.3133 12.03 0.34592
-9.1973 12.226 0.29931
-9.0589 12.278 0.14971
-9.3277 11.932 -0.1009
-9.3731 12.35 0.39753
-9.162 12.548 0.45501
-9.4484 12.135 0.49329
-9.5923 12.312 0.049621
-9.2604 12.506 0.088517
-9.0874 12.965 0.088802
-9.1868 12.526 -0.028941
-9.0748 13.028 0.0089195
-9.2083 12.684 -0.29317
-9.1456 13.292 0.045212
-9.3563 13.258 0.060508
-9.2097 13.368 -0.26417
-9.0582 13.619 0.28473
-8.9734 13.67 -0.31665
-9.1271 13.877 0.14553
-9.4005 13.705 -0.22423
-9.3552 14.061 0.014336
-9.5501 14.232 -0.25615
-9.3638 14.097 -0.0035024
-9.3774 14.192 -0.032799
-8.9973 14.053 0.19835
-9.446 14.518 0.039575
-9.4793 14.818 -0.48432
-9.4996 14.748 -0.11888
-9.0116 14.918 -0.39529
-9.1656 14.796 -0.24457
-9.398 14.649 -0.29495
-8.8345 -15.323 -0.19316
-9.226 -14.98 -0.48535
-9.189 -14.845 -0.020103
-9.0328 -14.713 -0.68938
-9.1088 -14.735 -0.34008
-9.0066 -14.844 -0.77817
-8.8798 -14.682 -0.17616
-9.5504 -14.346 -0.61448
-8.9932 -14.31 -0.12847
-8.9756 -14.489 -0.039025
-9.4283 -14.006 -0.32497
-8.9891 -13.842 -0.11914
-9.2604 -13.815 0.17461
-9.283 -14.19 -0.051617
-9.0136 -13.339 -0.067473
-9.0388 -13.131 -0.17354
-9.3522 -13.284 0.010097
-9.3359 -13.044 0.11665
-9.202 -13.267 0.0011023
-9.0148 -13.315 0.047898
-8.9573 -13.29 -0.12171
-9.1113 -13.13 0.077668
-9.1766 -13.225 -0.015998
-9.01 -12.869 0.048148
-9.2556 -12.515 0.0070029
-9.2222 -12.75 0.013913
-9.1008 -12.593 0.10509
-9.322 -11.862 -0.13934
-9.2417 -12.646 0.037918
-8.9985 -12.384 -0.17293
-9.2465 -12.194 0.066937
-9.598 -12.045 -0.025108
-9.1254 -11.891 -0.17337
-9.0719 -11.828 -0.11559
-9.2147 -11.816 -0.092514
-9.24 -11.684 0.10864
-9.1651 -11.554 -0.35117
-8.8402 -11.259 0.14193
-9.0973 -11.298 -0.13361
-9.0463 -11.051 -0.22996
-9.4113 -10.765 -0.03602
-9.2183 -10.977 0.29764
-9.4171 -11.045 -0.24078
-9.2287 -10.93 -0.53568
-9.0927 -10.441 -0.044638
-9.0755 -10.757 -0.14745
-9.0806 -10.663 -0.43365
-9.3585 -10.486 -0.33797
-9.28 -10.259 0.089257
-9.1322 -10.577 -0.04411
-8.9401 -10.326 -0.24133
-9.027 -9.9717 -0.44687
-9.28 -10.047 -0.39827
-9.2207 -9.5975 -0.17527
-9.1038 -10.176 -0.57766
-9.2158 -9.3539 -0.40182
-9.5913 -9.3474 -0.29484
-9.1018 -9.198 -0.69063
-8.8784 -9.2712 -0.20629
-9.1001 -9.0304 -0.17918
-9.0846 -8.9566 0.094464
-9.4653 -9.0749 -0.50341
-9.2221 -8.8201 -0.63932
-9.1118 -8.805 -0.52675
-9.1821 -8.8238 -0.37149
-8.8223 -8.627 -0.24303
-9.0053 -7.9487 -0.57559
-9.3862 -8.5458 -0.14649
-9.2377 -8.1047 -0.11598
-8.9401 -7.8824 0.0017162
-9.3005 -8.1424 -0.239
-9.4163 -8.1182 -0.082249
-9.1568 -7.9729 -0.3396
-9.2433 -8.2368 -0.18182
-9.0685 -7.4029 0.0051118
-9.3917 -7.6602 -0.16633
-9.2446 -7.5188 -0.25438
-9.1482 -7.5164 -0.34623
-9.0657 -6.9596 0.32696
-9.0353 -7.0793 0.06003
-9.3377 -6.8518 0.20555
-9.1304 -6.8071 -0.059883
-9.1497 -7.1621 0.027052
-9.2079 -6.834 0.07617
-9.0877 -6.299 0.27654
-8.9291 -6.5601 0.12707
-9.1127 -6.6639 0.23453
-9.3287 -6.4919 0.043381
-9.3207 -6.1747 0.3034
-9.4914 -5.8637 0.019489
-8.9819 -6.0644 -0.036126
-9.1442 -6.1426 -0.058817
-9.0233 -5.8345 0.2244
-9.1541 -5.8638 0.031096
-9.3888 -6.1089 0.4487
-9.5154 -5.2531 -0.12602
-9.3576 -5.6646 -0.17309
-9.3937 -5.2703 -0.42556
-9.0791 -5.2345 -0.50305
-8.9966 -5.1825 -0.11621
-9.1609 -5.1756 -0.037988
-9.3171 -4.8696 -0.068284
-9.3194 -4.7675 -0.30887
-9.0286 -4.8214 -0.21643
-9.25 -4.5603 0.047093
-9.006 -4.7798 -0.025024
-9.2593 -4.1452 -0.24524
-8.9848 -4.2043 -0.33733
-9.7024 -4.2593 -0.27672
-9.1116 -4.5693 -0.33368
-9.1008 -4.2204 -0.36751
-9.3017 -4.4261 -0.40267
-8.9056 -3.8426 -0.011879
-9.1246 -3.5966 -0.50539
-9.7685 -3.7634 -0.063477
-9.1246 -3.6292 -0.27099
-9.1207 -3.5034 -0.40625
-9.0269 -3.3556 -0.48177
-8.8944 -3.2854 -0.71408
-9.2451 -2.7586 -0.74188
-9.3604 -2.8858 -0.16232
-9.5442 -3.052 -0.36944
-9.3221 -2.9455 -0.61118
-9.3382 -2.6792 -0.21119
-9.082 -2.7367 -0.21175
-9.1158 -2.5278 -0.05149
-8.9569 -2.7597 -0.11435
-9.2947 -2.2784 -0.64049
-9.0991 -2.5269 -0.19091
-9.2935 -2.5916 -0.43691
-9.2609 -2.0948 -0.30074
-9.2842 -2.0465 -0.569
-9.1912 -1.7546 -0.013248
-9.4211 -1.7692 -0.50061
-8.9428 -1.1493 -0.16009
-9.444 -1.6727 0.061184
-9.3313 -1.5265 -0.24386
-9.2776 -1.2457 -0.23753
-9.2958 -1.3974 -0.040366
-9.2548 -1.3548 -0.19173
-8.7633 -0.99148 -0.20014
-9.3662 -0.98863 -0.10704
-9.0302 -1.079 0.36981
-9.1395 -0.87611 0.013393
-9.2705 -0.98767 0.41583
-9.0754 -0.43246 -0.38627
-9.1101 -0.70695 0.1765
-9.3611 -0.4763 0.045875
-9.6377 -0.2194 -0.20414
-9.2209 -0.6201 -0.013986
-9.1837 -0.31147 0.174
-9.2465 0.16623 0.028353
-8.9116 0.041455 0.54664
-9.2971 0.28421 0.37746
-9.4268 0.31539 0.14195
-8.8626 0.29937 0.12339
-9.267 0.17221 0.11052
-9.0145 0.20418 -0.097547
-8.8555 0.90625 -0.23364
-9.3607 0.79425 -0.52007
-9.0157 0.91098 0.11868
-9.3595 1.0673 -0.3374
-9.1221 1.5379 0.13101
-9.0207 1.1838 -0.031204
-8.9904 1.4185 -0.2881
-9.2463 1.1401 -0.073331
-9.2723 1.3824 -0.48049
-9.255 1.4772 -0.21852
-9.157 1.402 -0.45943
-8.9909 1.8415 -0.53698
-9.0366 1.855 -0.25335
-9.3062 1.825 -0.25363
-9.4161 2.2874 -0.43431
-9.4655 2.1093 -0.66191
-9.1012 2.1841 -0.32954
-9.469 2.4615 -0.0051657
-9.0387 2.6244 -0.28193
-9.2657 2.6843 -0.28514
-9.1569 2.3153 -0.34979
-9.7039 2.9226 -0.42211
-9.1344 2.9331 -0.36249
-9.9008 2.9353 -0.43127
-8.7913 3.1332 -0.64015
-9.0273 2.9878 -0.72126
-9.2243 3.2587 -0.44151
-9.106 3.6372 -0.4267
-9.6415 3.6221 -0.53367
-8.7887 3.6634 -0.65382
-9.1928 3.6891 -0.23287
-9.2409 3.3705 -0.16254
-9.1773 3.6113 -0.6374
-9.2204 3.8731 0.092527
-9.1355 3.6953 -0.19402
-9.3408 4.3218 -0.14401
-9.4189 4.1817 -0.36371
-9.2933 4.4619 -0.27335
-9.3156 4.5117 -0.32182
-9.345 4.5529 -0.14741
-9.3037 4.5706 -0.17148
-9.4106 4.9959 -0.17757
-9.0858 4.8762 -0.1251
-8.9743 4.9824 -0.025799
-9.3174 5.1333 -0.078388
-9.3267 4.8366 -0.051318
-9.4327 5.3166 -0.14426
-9.2536 5.4684 -0.074892
-8.8815 5.7841 0.067476
-9.2961 5.6369 0.24229
-9.2231 5.7487 -0.087985
-9.0946 5.7343 0.26706
-9.1578 5.4648 0.081576
-9.2207 6.2402 0.038732
-9.1516 5.8964 -0.0082826
-9.643 6.3366 -0.18939
-9.4841 6.1694 0.026952
-8.8991 6.3144 -0.11893
-9.0118 6.6443 0.0049574
-9.1734 6.6452 -0.098228
-9.2635 6.74 -0.071513
-9.4777 6.4068 0.071875
-9.2498 6.9235 -0.042267
-9.3056 7.0353 -0.10528
-8.8705 7.0634 0.056216
-9.2539 7.3491 0.13274
-8.9553 7.0871 0.29466
-9.0405 7.5057 -0.33317
-9.1518 7.3362 -0.55579
-9.2846 7.6252 0.072885
-9.7143 7.8087 0.6122
-8.9041 7.2743 -0.31568
-8.9528 8.0549 -0.68407
-9.213 7.4856 -0.20185
-9.4325 8.6088 -0.34468
-8.7803 8.2064 -0.58663
-9.0512 8.4263 -0.3926
-9.1325 8.2036 -0.38993
-9.1437 8.5445 -0.40068
-8.7927 8.3649 -0.43639
-9.5314 8.9956 -0.40843
-9.1771 8.8677 -0.34572
-9.4039 8.8765 -0.29337
-9.2864 9.2224 -0.10772
-9.3253 9.0886 -0.56954
-8.9273 9.0969 -0.48557
-9.2059 9.1237 -0.34119
-9.1505 9.7485 -0.56649
-9.2017 9.4501 -0.36935
-9.5613 9.7065 -0.39295
-9.5191 9.478 -0.11508
-9.3339 9.9971 -0.2547
-9.3016 9.7533 -0.41093
-9.3582 9.5986 -0.20566
-9.1005 10.104 -0.30015
-9.212 10.118 -0.39339
-9.102 10.536 -0.27295
-8.8977 10.046 -0.11551
-9.1683 10.603 -0.54277
-9.0562 10.373 -0.26071
-9.1096 10.965 -0.14151
-9.1706 10.389 0.17971
-9.3736 11.137 -0.39889
-9.4694 11.004 -0.027611
-9.1894 11.311 -0.59139
-9.133 11.182 -0.16477
-9.3471 11.181 -0.25617
-8.8889 11.58 0.037246
-8.8143 11.645 -0.0022385
-9.335 11.72 -0.083698
-9.0519 11.489 -0.040019
-9.0535 11.818 0.21924
-9.1162 12.161 0.14516
-9.2254 12.141 0.26279
-9.1042 11.998 0.0943
-9.0101 12.205 0.11783
-9.2851 12.032 0.057078
-9.1034 12.407 -0.22953
-9.1585 12.282 0.038665
-9.0777 12.251 0.51925
-9.1449 12.686 0.24454
-8.8522 12.88 0.48892
-9.0632 12.93 0.27498
-9.7621 12.563 0.21191
-8.8764 13.342 0.058262
-9.3092 13.242 0.29461
-8.907 13.224 -0.084071
-9.3457 13.601 0.21635
-9.0715 13.277 0.31019
-8.9579 13.551 0.064279
-9.5357 13.739 0.25467
-9.3497 14.039 -0.33591
-9.3017 13.855 -0.049329
-9.3087 13.778 -0.091261
-8.9931 14.02 -0.50294
-9.2823 14.285 -0.32488
-9.0632 14.09 -0.46371
-9.1175 14.36 -0.22272
-9.0801 14.518 -0.7166
-9.4207 14.871 -0.32257
-9.5111 14.788 -0.19525
-9.346 14.957 -0.70939
-9.06 14.372 -0.33273
-9.0616 -15.232 -0.492
-9.324 -15.02 -0.75336
-9.1189 -14.737 -0.42926
-9.104 -14.857 -0.24399
-8.9773 -14.748 0.034165
-9.1547 -14.716 -0.42665
-9.3512 -14.453 -0.48455
-9.0189 -14.371 -0.17348
-9.4578 -14.42 -0.34947
-9.1526 -14.097 -0.17389
-9.4153 -13.895 -0.56905
-9.1433 -13.717 -0.12696
-8.9832 -13.773 -0.24225
-9.0599 -13.929 -0.53484
-9.0417 -13.705 -0.020203
-9.2392 -13.701 0.27108
-8.9702 -13.57 0.30119
-9.2941 -13.311 0.27153
-9.2215 -13.298 -0.15126
-9.1266 -13.133 0.33137
-9.3777 -12.885 0.15381
-9.1118 -13.299 -0.32785
-9.0923 -12.935 0.057158
-8.9205 -12.648 0.60402
-9.4847 -12.904 0.061255
-8.751 -12.1 0.21542
-9.0455 -12.554 -0.075158
-9.255 -12.318 0.2451
-9.0589 -12.474 0.0084833
-9.4428 -12.181 -0.049853
-8.6308 -12.334 0.038743
-9.3714 -11.743 -0.13699
-9.319 -11.922 -0.13677
-8.8732 -11.791 -0.0023785
-9.0263 -11.559 -0.15571
-9.3601 -11.544 -0.21211
-8.9437 -11.528 -0.20535
-9.3418 -11.13 -0.21333
-8.917 -11.142 -0.09869
-9.0981 -11.142 0.032189
-8.7737 -11.32 -0.18154
-9.3012 -11.06 -0.25213
-9.0637 -10.938 0.21413
-8.941 -10.75 -0.47242
-9.5558 -10.542 -0.32654
-8.9915 -10.769 -0.35024
-9.3312 -10.733 -0.29964
-9.2405 -10.832 -0.063232
-9.0467 -10.113 -0.35759
-9.5706 -10.345 -0.56993
-8.8077 -9.9749 -0.39729
-9.2101 -9.7732 -0.59193
-9.2317 -9.7195 -1.005
-9.3004 -9.633 -0.39206
-9.4043 -9.5198 -0.21357
-8.8516 -9.6449 -0.85912
-8.9451 -9.4962 -0.25174
-9.1307 -9.2473 -0.077652
-9.195 -9.2876 -0.099398
-9.0939 -8.8859 -0.28304
-8.9002 -9.1075 -0.5202
-9.2511 -8.9427 -0.41333
-9.2031 -8.6402 -0.24334
-9.3068 -8.3291 -0.46183
-8.9553 -8.7919 -0.24391
-9.5145 -8.6338 -0.25208
-9.0448 -8.3407 -0.37464
-8.845 -8.8382 -0.22783
-8.9865 -8.5187 -0.12707
-9.1542 -8.246 -0.12997
-8.9915 -7.9065 -0.26063
-8.9111 -8.167 -0.033823
-8.9028 -8.0153 -0.23733
-9.042 -7.5987 -0.05012
-8.8542 -8.1905 0.17217
-9.3143 -7.6856 0.017073
-8.9471 -7.5311 -0.042143
-8.9368 -7.6682 -0.029924
-9.074 -7.4673 0.025141
-9.0012 -7.0841 0.24518
-9.5167 -7.0355 -0.035237
-9.1987 -7.2577 -0.26799
-9.2947 -6.5394 -0.21707
-9.3488 -6.8163 0.32377
-9.0023 -6.9254 0.049042
-9.4027 -6.7585 -0.013169
-9.1766 -6.2456 0.064375
-8.9847 -6.3642 -0.058932
-8.993 -6.0715 -0.02772
-9.0663 -6.2374 -0.20041
-8.6562 -6.3427 0.30028
-8.8641 -5.9342 0.13749
-8.9394 -6.029 0.11795
-9.2442 -5.8447 0.14522
-9.2236 -5.5261 0.057347
-8.6081 -5.6785 -0.30395
-9.1684 -5.3072 0.20245
-8.76 -5.1211 -0.24237
-9.3342 -5.1601 0.21405
-8.8442 -4.9968 -0.015547
-9.3347 -5.0111 -0.14758
-9.0837 -4.8393 -0.16384
-9.2433 -5.0858 0.23598
-8.8907 -4.8743 0.09002
-9.0687 -4.719 -0.064307
-9.0831 -4.2746 -0.21221
-9.0873 -4.7387 -0.09376
-9.0425 -4.4238 -0.3368
-8.7596 -3.9863 -0.79973
-9.1346 -4.1255 -0.67308
-8.8673 -3.8803 -0.59119
-9.0622 -4.0502 -0.27941
-9.3617 -3.6478 -0.26862
-9.3616 -3.9801 -0.34938
-9.2392 -3.6666 -0.13747
-8.9405 -3.6416 -0.050835
-9.2601 -3.4767 -0.59068
-9.3686 -3.248 -0.36526
-9.3864 -3.5602 -0.74409
-9.2185 -3.1612 -0.57307
-8.8643 -3.1096 -0.55404
-9.0189 -2.8704 -0.26455
-8.778 -2.6326 -0.32602
-9.7006 -3.0598 -0.38588
-8.7128 -2.6752 -0.4177
-8.9252 -2.8837 -0.99889
-8.9502 -2.7105 -0.33221
-9.1292 -2.5094 -0.52836
-8.9304 -2.5982 -0.37326
-9.0462 -2.3067 0.06709
-9.2215 -1.9709 -0.25045
-9.3116 -2.3091 -0.22723
-9.0732 -1.966 -0.087588
-9.224 -1.5548 -0.51047
-9.2286 -2.0774 -0.35962
-8.9133 -1.753 -0.36586
-8.6366 -1.5325 -0.29997
-8.9349 -1.1006 -0.14383
-9.0161 -1.6025 -0.49135
-9.0371 -1.3555 -0.041916
-9.0259 -1.0324 -0.11831
-9.2549 -1.1762 0.15426
-9.4554 -0.99547 -0.31069
-9.1147 -0.89932 -0.12006
-9.1243 -1.1434 -0.091737
-9.6031 -0.63425 -0.22348
-9.5092 -0.59162 -0.028855
-9.1033 -0.76002 -0.19129
-8.8257 -0.42255 0.11461
-9.1552 -0.16103 -0.047512
-8.9603 -0.048571 0.016829
-8.9001 -0.18956 -0.23124
-9.2411 -0.024726 0.044505
-9.0824 0.32088 0.13729
-8.7555 0.30834 -0.13386
-9.3829 0.38286 -0.065132
-8.9898 0.38172 -0.063279
-9.2917 0.40961 0.30102
-8.7406 0.79182 0.12644
-9.33 1.1632 -0.1573
-9.0238 0.78439 -0.0081075
-8.8158 1.1214 -0.25031
-9.094 1.4152 -0.13995
-9.103 1.0881 0.057938
-9.3692 1.2783 -0.053005
-9.2847 1.3747 -0.31122
-9.124 1.6919 -0.36066
-9.1332 1.6305 -0.5704
-9.3191 1.5282 -0.48676
-9.1377 1.6999 -0.13234
-9.2763 2.2137 -0.50814
-9.2956 1.7847 -0.41085
-9.2395 2.0777 -0.34506
-8.9698 1.9939 -0.35869
-9.0496 2.3792 -0.39552
-8.8442 2.3103 -0.039165
-9.0741 2.5288 -0.81145
-9.3673 2.7759 -0.6366
-9.5338 2.5777 -0.47437
-9.0352 2.8679 -0.47905
-8.9794 3.1192 -0.11884
-8.8618 3.1369 -0.23554
-9.339 2.9516 -0.28738
-9.3116 3.3343 -0.82379
-9.4408 3.5658 -0.29373
-8.8943 3.4964 -0.15677
-9.4914 3.4185 -0.64767
-9.3988 3.447 -0.21942
-9.1345 3.5511 -0.12222
-9.1528 3.7185 -0.36575
-9.2022 4.0106 -0.055011
-9.4709 3.9565 -0.10933
-8.8137 4.1613 -0.55795
-9.2594 4.1096 -0.2676
-9.0932 3.9078 -0.03684
-9.1805 4.1446 0.12993
-9.0024 4.9315 -0.13821
-9.5549 4.0897 -0.66895
-9.2082 4.7049 -0.098274
-9.0318 5.0855 -0.46999
-8.8877 4.8726 -0.21064
-9.3257 4.7581 -0.10018
-9.1587 4.952 -0.47806
-9.3176 5.3279 -0.19161
-9.5006 5.3214 0.21183
-8.8965 5.4885 -0.042099
-8.9902 5.5741 0.091855
-8.8405 5.5631 0.36246
-8.9287 5.359 -0.080802
-9.0696 5.866 0.16966
-8.8466 6.2694 -0.022271
-8.9696 6.083 0.19542
-9.1926 6.1705 0.23981
-9.0779 6.4456 0.19687
-9.0317 6.1415 0.05325
-8.9521 6.2557 0.031707
-9.1053 6.628 0.093584
-8.9243 6.7837 -0.30464
-9.1096 6.902 -0.16174
-8.7786 6.799 0.14936
-8.9797 6.9808 -0.028512
-9.3518 6.9005 0.12386
-9.4352 7.2938 0.24366
-9.0384 6.9003 -0.34766
-8.7569 7.3358 -0.22448
-9.3852 7.4607 -0.27684
-9.1646 7.7043 -0.088528
-8.879 7.6285 -0.25974
-9.0582 7.7828 -0.30166
-8.8205 7.6267 -0.36603
-8.7754 8.0739 0.018453
-9.3638 7.9034 -0.19788
-8.9962 8.0212 -0.61408
-9.1106 8.3177 -0.54415
-9.3585 8.3037 -0.30073
-9.1261 8.3954 0.023005
-8.7697 8.2437 -0.30533
-9.38 8.7355 -0.61405
-8.9561 8.7461 -0.49155
-9.1239 8.6765 -0.21707
-9.1522 8.8893 -0.52067
-9.2898 8.7583 -0.39533
-9.3328 8.7291 -0.42843
-8.8077 9.4014 -0.6119
-9.1559 9.1027 -0.39216
-8.8988 9.3685 -0.045323
-9.0109 9.3726 0.056871
-9.1132 9.6803 -0.35277
-9.3059 9.4879 -0.54355
-9.2511 9.4229 -0.38975
-9.2339 9.7203 -0.15745
-8.9491 9.8055 -0.53107
-9.1297 9.9921 -0.059917
-9.1009 10.243 -0.020151
-8.8959 10.213 -0.39604
-9.2787 10.171 -0.54395
-9.1897 10.679 0.31459
-9.0641 10.462 -0.2139
-9.0603 11.137 -0.31663
-8.9791 10.978 -0.22151
-9.2051 11.105 -0.058444
-9.0958 10.872 -0.22729
-9.4871 11.189 -0.14789
-9.0625 11.296 0.027502
-9.0193 11.563 0.13786
-8.9395 11.398 -0.14993
-9.23 11.587 -0.061944
-9.1819 11.798 0.016
-8.6422 11.271 -0.26736
-9.0957 11.85 -0.34523
-9.2824 11.758 -0.12443
-9.1995 12.481 -0.12596
-8.8805 12.124 -0.14337
-8.9748 12.127 0.00397
-8.9705 12.167 -0.1241
-8.8998 12.288 0.00096655
-9.0998 13.006 0.10967
-9.1092 12.82 0.13203
-8.9676 12.817 -0.064861
-9.4742 12.853 -0.18814
-8.9696 12.712 0.25213
-9.0775 13.01 -0.045853
-9.4051 12.621 -0.13533
-9.3061 13.001 0.23722
-9.1673 13.175 -0.2209
-8.9603 13.153 0.09827
-9.1944 13.309 -0.012578
-9.0074 13.94 -0.090469
-9.2474 14.093 0.13167
-9.0274 13.462 -0.043878
-9.1395 13.715 -0.083156
-9.3454 14.056 -0.242
-9.3707 14.085 -0.18469
-9.185 14.466 -0.45867
-8.8352 14.203 -0.14239
-9.0688 14.167 -0.15142
-8.722 14.78 0.087368
-9.0518 14.503 0.019176
-9.014 14.458 -0.27202
-8.9384 14.841 -0.42989
-9.0495 14.66 -0.48738
-8.8297 -15.395 -0.2171
-9.1236 -15.189 -0.44218
-9.0576 -14.898 -0.19448
-8.8833 -14.896 -0.64727
-8.9012 -14.661 -0.41912
-9.3686 -14.413 -0.32763
-8.972 -14.404 -0.032402
-8.7673 -14.599 -0.39086
-8.9138 -14.036 -0.44625
-8.7713 -14.362 -0.58177
-9.3989 -13.912 0.17599
-8.8132 -13.938 -0.30836
-9.1198 -14.032 -0.16949
-8.8433 -13.998 0.091192
-9.3258 -13.791 0.17485
-9.1363 -13.713 -0.12084
-8.9796 -13.637 -0.088047
-8.6576 -13.211 0.10343
-8.9073 -13.653 -0.044282
-8.9195 -13.429 -0.099834
-9.1223 -13.094 -0.026741
-8.5871 -13.031 0.17896
-8.7422 -13.235 0.031698
-8.8575 -12.805 0.050986
-9.1953 -12.702 0.023244
-9.0269 -12.813 0.24788
-9.1864 -12.529 0.025732
-8.7656 -12.719 -0.021002
-8.8159 -12.662 -0.095102
-8.9296 -12.036 -0.081676
-9.1256 -12.07 0.33962
-8.7329 -11.911 -0.10337
-8.791 -12.019 -0.32886
-8.9297 -11.632 -0.39638
-9.3223 -11.39 -0.3159
-8.8931 -12.043 -0.40765
-8.7772 -11.059 -0.15156
-8.9308 -11.558 -0.37742
-9.0021 -11.275 -0.72171
-9.0166 -11.111 0.24316
-9.0966 -10.952 -0.41503
-8.7488 -10.75 -0.64163
-8.9187 -10.858 -0.19884
-8.9537 -10.743 -0.57538
-9.2217 -10.82 -0.61449
-8.923 -10.676 -0.41537
-8.8617 -10.637 -0.45026
-9.1089 -10.022 -0.49138
-9.187 -10.507 -0.40789
-8.8634 -10.053 -0.33209
-8.8824 -10.213 -0.49431
-9.0268 -10.189 -0.28222
-9.2128 -10.021 -0.66901
-9.37 -10.059 -0.35268
-9.0265 -9.7399 -0.44594
-9.0352 -9.8817 -0.34832
-9.0327 -9.3049 -0.56433
-9.125 -9.277 -0.61467
-8.8975 -9.4748 -0.44778
-8.91 -8.8774 -0.77829
-8.7858 -9.0264 -0.35126
-9.1725 -9.1827 -0.58529
-8.7382 -9.1253 0.067408
-9.1017 -8.5114 -0.65799
-9.0273 -8.3452 -0.58525
-9.4629 -8.9849 -0.28113
-9.2277 -8.3671 -0.30988
-8.9777 -9.0161 -0.15151
-8.787 -8.2561 -0.20823
-8.8216 -8.2259 0.01675
-9.1338 -8.5166 -0.58841
-9.0637 -8.0945 -0.17638
-8.7526 -7.452 -0.32976
-8.8438 -7.9139 0.10662
-9.4231 -7.8973 -0.19899
-9.0789 -7.8183 -0.095907
-9.2484 -7.4978 0.14857
-9.2896 -7.3363 0.18203
-9.1751 -7.2857 -0.091478
-9.134 -6.8092 -0.2964
-8.8384 -6.8903 0.21666
-9.0325 -6.9104 -0.084093
-9.124 -6.7577 0.14509
-8.7177 -6.4398 0.10626
-8.7123 -6.6607 -0.10342
-8.9481 -6.8726 -0.019992
-8.9826 -6.7245 0.060042
-9.1318 -6.3174 -0.44041
-8.5333 -6.0586 -0.07168
-9.0254 -6.1479 0.14533
-9.0519 -6.2111 0.026888
-8.6342 -6.3367 -0.097518
-9.2635 -5.5536 -0.27432
-9.1763 -6.1641 0.19118
-8.7671 -5.2126 -0.075066
-8.939 -5.5035 -0.029115
-9.1025 -5.4733 -0.034659
-8.7188 -5.5593 -0.34532
-9.4289 -5.8901 -0.088136
-9.2865 -4.9375 -0.21718
-8.9445 -4.8494 -0.038022
-9.361 -4.9937 -0.22835
-9.0327 -4.9087 -0.60958
-9.0482 -4.8486 -0.36277
-9.3848 -4.9144 -0.01103
-8.9853 -4.4318 -0.15892
-9.0273 -4.3182 -0.52253
-8.9292 -4.6757 -0.17183
-9.181 -4.5386 -0.46394
-9.6182 -4.2705 -0.24371
-8.7819 -4.4328 -0.74446
-9.2616 -3.9645 -0.35362
-8.9719 -3.8575 -0.56255
-8.6172 -3.7777 -0.52509
-8.9358 -3.6437 -0.43204
-8.9356 -3.7091 -0.049931
-9.0412 -3.5931 -0.27308
-8.5973 -3.5085 -0.7397
-9.0736 -3.2892 -0.78035
-9.0872 -3.4478 -0.48337
-9.1424 -3.0446 -0.28041
-8.9345 -2.8455 -0.73926
-9.1917 -2.6271 -0.61994
-9.1988 -3.1331 -0.23242
-9.4508 -2.675 -0.56789
-8.7196 -2.4988 -0.34465
-9.2986 -2.4925 -0.16532
-9.0351 -2.3514 -0.62955
-9.1943 -2.1955 -0.78753
-9.1381 -2.5406 -0.29845
-9.2658 -1.9829 -0.15196
-8.7897 -2.1046 -0.21418
-9.0545 -1.6157 -0.61648
-9.0371 -1.6619 -0.14672
-8.8937 -1.901 -0.3124
-8.8601 -1.8124 -0.22241
-9.1189 -1.7006 0.11341
-9.0084 -1.1221 -0.31609
-9.1986 -1.2188 -0.50973
-8.9617 -1.4788 -0.23284
-9.2476 -1.5897 0.069062
-8.8723 -1.4365 -0.053497
-8.8649 -1.0516 -0.19661
-9.145 -0.53252 0.093297
-8.8497 -0.79572 0.14794
-8.8096 -0.7986 -0.27625
-9.1266 -0.64931 -0.052371
-8.8034 -0.77062 0.21606
-9.2348 -0.34794 -0.063726
-9.21 0.0053703 0.26011
-9.1543 -0.36551 0.46229
-9.286 0.025946 -0.22813
-9.0827 0.22155 -0.23125
-8.9989 0.19638 0.086818
-8.8985 0.086043 -0.43558
-8.9042 0.5763 -0.29681
-8.9899 0.56205 -0.0012661
-8.8832 0.54009 0.030506
-8.9722 0.82887 -0.25381
-8.8349 1.2528 -0.21737
-9.0266 1.0271 0.069202
-9.1113 0.99915 -0.014888
-8.8856 1.1983 0.034779
-9.0683 1.4308 -0.34138
-9.1705 1.4087 0.1299
-8.5483 1.786 -0.30563
-8.8671 1.289 -0.73392
-9.0477 1.5578 -0.28046
-9.0929 1.5878 -0.55781
-8.8702 1.8475 -0.31493
-8.7861 2.0844 -0.38876
-9.2901 1.9499 -0.52639
-8.969 1.9755 -0.54531
-8.9506 2.229 -0.41421
-8.9364 2.187 -0.60175
-8.7214 2.5298 -0.42329
-9.2234 2.5424 -0.66092
-8.9173 2.5824 -0.37011
-8.8596 2.5495 -0.53095
-9.0603 2.6618 -0.35481
-8.8568 3.1183 -0.52399
-9.289 3.0922 -0.30552
-9.123 3.2143 -0.22995
-8.8175 3.3277 -0.5594
-8.797 3.5794 -0.14567
-9.1695 3.8046 -0.63365
-9.0493 3.6441 -0.22563
-9.1501 4.0292 -0.51474
-8.9003 3.6845 -0.48953
-8.8626 3.8114 -0.39784
-9.2262 3.8303 -0.46175
-9.1917 4.1806 -0.64025
-8.7723 4.0382 -0.2505
-9.1794 4.0974 -0.50473
-8.7628 4.229 -0.11887
-8.9128 4.2973 -0.17393
-9.0496 4.5297 -0.39587
-8.9554 4.6885 -0.46518
-8.8425 4.7733 -0.18717
-8.9318 4.8869 -0.29988
-8.8521 4.9757 -0.52806
-8.7082 5.0524 0.3434
-8.7452 5.3221 -0.019154
-9.0963 5.7056 -0.15216
-8.7553 5.2691 0.064975
-8.713 5.5278 -0.13218
-9.0262 5.3128 -0.34902
-9.1204 5.468 -0.18785
-8.9435 5.8849 0.061647
-8.8565 5.9828 0.0088852
-8.965 5.7123 -0.0035055
-8.9935 6.019 0.21793
-8.854 6.1439 0.18485
-8.9617 6.2964 -0.22872
-9.2243 6.3385 -0.41371
-9.2425 6.6703 -0.24407
-8.9704 6.2038 0.31809
-8.579 6.9357 -0.24631
-8.9895 6.9164 -0.046597
-8.9135 7.2592 -0.13656
-8.7359 6.8018 -0.28813
-8.9215 6.7282 -0.15578
-8.9705 7.4127 -0.1504
-9.1378 7.2012 -0.57376
-8.9702 7.4045 -0.19916
-9.0127 7.6891 -0.24257
-9.1041 7.5387 -0.36605
-8.6852 7.8915 0.022521
-9.2361 7.5428 -0.25224
-8.7166 7.7386 -0.15342
-9.0622 7.6219 0.053178
-9.1974 7.8618 -0.19811
-9.115 7.9867 -0.67867
-9.2073 8.3265 -0.3794
-8.5506 8.5334 -0.24297
-9.389 8.3625 -0.47515
-9.2829 8.6809 -0.31733
-9.1005 8.6198 -0.42215
-8.736 8.7238 -0.2696
-9.0587 8.7529 -0.80345
-8.6565 8.9964 -0.43901
-9.0383 8.769 -0.79539
-8.7589 9.1009 -0.45922
-9.4511 9.096 -0.60388
-8.7489 9.6658 -0.45251
-9.0741 9.368 -0.68915
-8.9243 9.6309 -0.65115
-9.101 9.8052 -0.29756
-9.3255 9.7785 -0.53368
-9.0833 9.9283 -0.39581
-9.1285 9.9361 -0.38857
-8.81 9.6449 -0.23922
-9.2188 10.15 -0.2048
-8.9426 10.425 -0.79526
-8.6149 10.643 -0.49682
-9.4036 10.243 -0.14897
-9.1842 10.628 -0.3172
-9.1583 10.577 -0.27308
-9.1712 10.807 -0.56417
-8.8987 10.943 -0.21986
-9.1037 10.866 -0.38248
-8.9581 10.693 0.032405
-8.7441 11.249 -0.036615
-9.0128 10.957 -0.13885
-8.9478 11.614 -0.083723
-8.9521 11.286 -0.22468
-9.0221 11.42 0.21837
-8.997 12.01 -0.41732
-8.8626 11.687 -0.091087
-9.1726 11.563 -0.12841
-8.9179 12.225 -0.14337
-8.8309 11.879 0.29243
-8.8975 11.956 -0.043595
-9.3081 11.878 0.25593
-9.1178 12.499 0.25892
-9.1429 12.823 -0.08208
-9.0748 12.835 0.16093
-9.196 12.525 0.030297
-8.6277 12.319 -0.21328
-8.881 12.664 -0.006054
-8.8503 13.035 0.0412
-8.8802 12.967 -0.12727
-8.8061 13.106 -0.38227
-9.1856 13.018 -0.16605
-9.2474 13.168 -0.17844
-8.9246 13.329 -0.37762
-8.9953 13.553 -0.2112
-9.1995 13.523 -0.22994
-9.1533 13.704 -0.3054
-8.756 13.287 -0.21495
-9.3506 13.787 -0.0069281
-8.7118 13.979 -0.2577
-9.1561 14.254 0.083016
-9.1711 14.086 -0.3076
-8.858 14.42 -0.42331
-9.1453 14.7 -0.60881
-8.8131 14.432 -0.57608
-8.9507 14.392 -0.50801
-8.7136 14.626 -0.23353
-8.4474 14.697 -0.22554
-9.2898 14.988 -0.23571
-8.9054 -15.604 -0.41633
-8.8274 -15.13 -0.468
-8.9382 -15.023 -0.38446
-8.6845 -14.973 -0.78379
-8.9209 -14.793 -0.38802
-8.8557 -14.69 -0.080077
-9.128 -14.387 -0.20033
-8.6342 -14.634 -0.15565
-8.8724 -14.067 -0.27313
-9.2816 -14.475 -0.37585
-8.7899 -14.409 -0.16667
-9.4154 -13.767 0.10138
-8.5639 -13.759 -0.24996
-8.9797 -13.769 -0.17231
-8.8332 -13.802 -0.35606
-8.4241 -13.722 0.23212
-8.9409 -13.503 -0.15691
-8.934 -13.341 -0.080341
-9.0527 -13.371 0.034453
-9.0864 -13.709 0.28848
-8.8337 -13.267 0.072573
-8.9422 -12.674 -0.076966
-8.5804 -13.058 0.10745
-8.9017 -12.524 -0.28974
-9.011 -12.568 -0.073214
-9.1429 -12.582 -0.15369
-8.8347 -12.812 0.15212
-8.9916 -12.114 0.21772
-8.8742 -12.524 0.15161
-9.0507 -12.197 -0.39708
-8.9484 -12.203 0.11804
-8.9386 -12.17 0.043305
-9.0345 -11.788 -0.14497
-8.6874 -11.801 -0.18905
-8.7751 -11.866 -0.41471
-8.9181 -11.752 -0.21169
-9.2383 -11.217 -0.15575
-8.8561 -11.774 -0.1095
-8.7269 -11.294 0.3262
-8.7282 -10.947 -0.27925
-8.9794 -11.039 -0.039562
-8.542 -11.105 -0.64558
-8.923 -11.042 -0.16547
-8.9362 -10.966 -0.17974
-8.4942 -10.618 -0.70073
-8.6637 -10.688 -0.43435
-8.7438 -10.795 -0.55909
-8.5575 -10.637 -0.084574
-8.8427 -10.397 -0.70603
-8.4452 -10.395 -0.49219
-8.9068 -10.171 -0.28199
-8.4991 -10.217 -0.50478
-9.1552 -10.023 -0.54607
-9.0001 -9.8224 -0.38022
-8.9789 -9.5246 -0.10525
-8.8948 -9.7799 -0.30067
-9.238 -9.756 -0.4363
-8.9469 -9.5276 -0.58426
-8.9402 -9.4778 -0.78284
-8.9937 -9.2898 -0.64025
-8.565 -8.8168 -0.44392
-9.0443 -8.9773 -0.56391
-8.833 -8.5824 -0.60047
-8.7814 -8.6327 -0.3482
-8.7358 -8.5172 -0.38775
-8.703 -8.7083 -0.36645
-8.7435 -8.2156 -0.63762
-8.9063 -8.4645 3.3425e-05
-9.2238 -8.6706 -0.22309
-8.8771 -7.9663 0.14091
-8.9665 -7.9172 -0.3831
-8.8914 -7.967 -0.04078
-8.7229 -7.6033 -0.35064
-8.7309 -8.1265 -0.24418
-8.9426 -7.6942 -0.10669
-8.918 -7.7769 0.028934
-8.8466 -7.7087 -0.087366
-8.8515 -7.7392 -0.10256
-8.7479 -7.6934 -0.066682
-9.1618 -7.4603 -0.025139
-8.8876 -7.4377 -0.093021
-9.0689 -7.0791 -0.14261
-8.9742 -6.8873 0.063034
-8.8074 -6.6874 0.036448
-8.963 -6.8469 -0.081627
-9.1611 -6.497 0.08587
-9.1161 -6.3168 0.025541
-9.0352 -6.4651 0.18022
-8.6477 -6.4449 0.18561
-8.6264 -6.1619 0.015299
-8.4398 -5.8365 0.13997
-8.7398 -5.6946 -0.086062
-9.1253 -6.0446 -0.14408
-8.8706 -5.8514 -0.12233
-8.7809 -5.8298 -0.31077
-8.8909 -5.6374 -0.063422
-8.8428 -5.3004 -0.22498
-8.9852 -5.1572 -0.20283
-8.8882 -5.3178 0.41091
-8.9054 -5.5602 -0.33284
-8.8173 -5.1763 -0.58454
-9.0894 -4.9616 -0.28378
-8.9193 -4.807 -0.30316
-8.7196 -5.1421 -0.096297
-9.0497 -4.5058 -0.57126
-8.9732 -4.7964 -0.31536
-8.6703 -4.6634 -0.13501
-8.9814 -4.143 -0.35258
-9.1265 -4.0468 -0.36376
-8.9045 -3.8768 -0.66147
-8.727 -4.2203 -0.49079
-8.9817 -4.5226 -0.1268
-8.7857 -3.8648 -0.48193
-8.8275 -3.728 -0.62498
-8.6287 -3.6257 -0.27722
-8.85 -3.59 -0.41849
-8.8231 -3.5774 -0.49779
-8.867 -3.5567 -0.82212
-8.6058 -3.6861 -0.38988
-9.0244 -3.297 -0.77252
-8.9949 -2.9878 -0.39451
-8.7934 -3.4396 -0.30624
-8.9182 -2.7148 -0.40453
-8.9321 -2.5667 -0.69992
-9.2531 -2.605 -0.48476
-8.919 -2.7509 -0.40267
-8.7569 -2.141 -0.20536
-8.6855 -2.2237 0.01224
-8.8711 -2.2177 -0.12777
-8.4439 -2.1548 -0.52229
-8.9957 -2.073 -0.43753
-8.6379 -2.0398 -0.45
-8.9868 -1.6596 -0.29003
-9.189 -1.4513 0.033457
-8.3364 -1.522 -0.028525
-8.7508 -1.41 -0.54018
-9.0856 -1.3251 -0.067959
-9.0045 -1.5751 -0.21912
-8.9026 -1.2459 -0.36743
-8.654 -1.3908 -0.042163
-8.9831 -0.91111 0.15774
-8.8734 -1.0561 0.1488
-8.7406 -0.81384 0.13699
-8.977 -0.92177 -0.22782
-9.1425 -0.71549 0.058073
-9.2565 -1.0106 -0.059486
-8.8443 -0.51251 0.17604
-8.704 -0.28767 0.10905
-8.9505 -0.51438 -0.047355
-8.9937 -0.19636 0.20692
-9.2237 0.24539 0.066359
-9.122 0.29093 0.092174
-9.1078 0.078502 -0.46336
-8.7976 -0.0021037 -0.052669
-8.7879 -0.29275 -0.075642
-9.1388 0.050977 -0.082253
-8.5912 0.49345 -0.076548
-8.8086 0.55783 -0.40546
-9.0407 0.47988 0.040818
-9.0514 0.87487 -0.22849
-8.8134 1.0276 -0.40932
-8.9104 0.75389 0.18247
-8.8527 1.1419 -0.45756
-8.9538 1.0782 -0.27619
-8.8655 1.3535 -0.35148
-8.903 1.3941 0.015747
-8.9552 2.0211 -0.28771
-9.0715 1.8032 -0.45007
-9.0654 1.9146 -0.55173
-9.2687 1.7272 -0.34715
-8.909 1.721 -0.15907
-9.4515 2.2463 -0.58535
-9.2873 2.2177 -0.61073
-9.0144 2.0399 -0.23849
-9.3981 2.2891 -0.24624
-8.8611 2.5632 -0.44872
-8.8188 2.2128 -0.59849
-8.429 2.6866 -0.50268
-8.8704 3.0421 -0.51246
-9.1148 3.1578 -0.74743
-8.8813 2.7871 -0.40738
-8.9929 2.7895 -0.41849
-9.2262 3.1422 -0.39979
-8.9944 3.0219 -0.46966
-8.4439 3.2614 -0.2117
-8.7064 3.4222 -0.34828
-8.9659 3.2597 -0.43202
-9.0472 3.3577 -0.50199
-8.7781 3.3466 -0.77405
-8.9316 3.7754 -0.34805
-8.9265 3.8207 -0.35116
-8.7666 4.4634 -0.02718
-8.6524 4.0822 -0.062418
-9.4073 4.1173 -0.34866
-9.1714 4.0607 -0.056455
-9.0738 4.4331 -0.5742
-8.709 4.3875 0.15013
-8.7987 4.2106 0.08413
-8.4559 4.4555 -0.12394
-8.8772 5.0466 0.30326
-9.0846 5.3357 0.11841
-9.0004 5.0432 0.05379
-9.0858 4.7124 -0.18823
-8.718 4.8552 0.22453
-8.8125 5.608 0.13154
-8.9268 5.565 -0.19499
-8.6877 5.1414 -0.39228
-8.8983 5.6406 0.03331
-8.4225 5.8725 -0.39752
-9.02 5.9321 -0.012119
-8.898 5.7838 0.0073001
-8.9001 5.9528 0.014921
-8.984 6.2209 -0.04525
-9.1349 6.1975 -0.20656
-8.8734 6.454 -0.080051
-8.9001 6.116 -0.2301
-9.038 6.1902 0.30795
-9.0817 6.9498 0.0073795
-8.7671 6.547 -0.40689
-8.9741 6.8732 -0.063109
-9.0391 6.721 0.2385
-8.7599 7.1606 0.064338
-9.0367 7.0671 -0.17392
-8.9098 7.4365 -0.11727
-9.0759 7.2286 -0.36521
-8.8124 7.4128 -0.2637
-8.5698 7.8073 -0.4096
-8.7549 7.4569 -0.046722
-8.6637 7.7245 -0.48484
-8.9122 7.7002 -0.25901
-8.8134 7.7723 -0.5747
-8.8304 7.9577 -0.34332
-8.8111 7.8412 -0.22202
-9.3018 8.1086 -0.11184
-9.0884 7.9964 -0.38781
-8.6911 8.5377 -0.39681
-8.2663 8.5042 -0.39504
-8.8834 8.8273 -0.37212
-8.9382 8.828 -0.24689
-9.1864 8.7934 -0.56463
-8.8572 9.2597 -0.25297
-8.7866 9.0231 -0.12367
-8.7168 8.7759 -0.71774
-8.6636 9.186 -0.38453
-8.745 9.6066 -0.24155
-8.9739 9.547 -0.46847
-9.0247 9.5323 -0.20746
-8.8625 9.6856 -0.64684
-8.8891 9.6116 -0.54682
-8.9862 9.6658 -0.45203
-8.8332 9.9041 -0.61036
-9.1731 10.075 -0.50281
-8.7727 10.085 -0.25253
-8.9361 10.496 -0.76572
-9.1192 10.025 -0.38685
-8.8525 10.305 -0.40742
-8.6928 10.376 -0.43543
-8.8533 10.447 -0.074154
-8.6359 10.848 -0.32213
-8.5649 10.686 -0.27279
-8.8555 11.064 -0.4389
-8.8653 11.251 0.092273
-9.1216 10.853 -0.35421
-8.8855 11.459 -0.038876
-8.8189 11.162 -0.14274
-8.8165 11.217 -0.095577
-9.0426 11.711 -0.26288
-9.2216 11.848 -0.080718
-8.3867 11.816 0.14336
-9.0709 11.719 -0.079398
-8.8814 11.941 0.23149
-9.0185 11.672 -0.013356
-8.5891 11.941 0.37132
-9.1291 11.974 0.2241
-8.9193 12.422 0.11235
-9.1595 12.181 -0.10093
-8.8285 12.449 0.015234
-8.6128 12.55 -0.24214
-8.7291 12.554 0.17459
-8.7949 12.699 0.14254
-9.2558 13.297 -0.22009
-9.2768 13.087 -0.14845
-9.3881 13.068 0.14106
-8.6757 12.898 -0.014851
-9.0309 13.107 0.32386
-8.8634 13.646 0.057666
-8.8269 13.291 -0.21287
-8.7604 13.693 0.049172
-8.6315 13.685 0.1502
-9.2089 14.102 -0.3005
-8.9862 14.086 -0.15798
-8.8428 14.331 -0.10345
-9.1917 14.048 -0.46809
-8.8607 13.911 -0.14602
-8.9462 14.383 -0.28389
-9.0588 14.813 -0.23668
-8.869 14.813 -0.24203
-8.894 14.603 -0.32775
-8.7745 14.713 -0.71331
-8.699 14.891 -0.092105
-8.886 14.875 -0.26189
-8.6976 -15.492 -0.5174
-8.7845 -15.14 0.21006
-8.9326 -14.74 -0.20892
-8.7781 -14.507 -0.25409
-8.9696 -14.471 -0.49358
-8.6026 -14.67 -0.49731
-9.0346 -14.685 -0.30406
-8.8726 -14.292 -0.27405
-8.9213 -13.984 -0.41262
-9.0366 -14.159 -0.447
-8.645 -14.312 -0.2272
-9.0319 -13.695 -0.22971
-9.0551 -13.851 0.1067
-8.8583 -13.581 -0.10943
-8.8222 -13.471 -0.03845
-8.7111 -13.329 -0.50059
-8.7699 -13.874 -0.015821
-9.0193 -13.025 -0.11059
-8.7999 -13.126 -0.24289
-8.9505 -13.066 -0.12003
-8.6181 -13.312 0.037019
-8.6865 -12.811 -0.074175
-9.0933 -13.067 0.21461
-9.1156 -12.65 -0.2015
-8.6925 -12.56 0.11172
-8.7809 -12.35 -0.20601
-8.6349 -12.295 0.13711
-8.5152 -12.179 0.066711
-8.5934 -12.433 -0.24818
-8.8415 -12.254 -0.17442
-8.7255 -12.365 -0.035863
-8.961 -11.787 -0.3901
-8.8617 -11.961 0.18679
-8.8143 -11.704 -0.23469
-8.7686 -11.662 -0.048532
-8.8593 -11.6 -0.38285
-8.3433 -11.671 -0.4913
-8.7193 -11.702 -0.27217
-8.8563 -10.986 -0.041147
-9.0755 -10.968 -0.42743
-8.9796 -11.048 -0.35447
-8.8941 -11.194 -0.5518
-8.9837 -10.904 -0.25838
-8.7541 -10.794 -0.16722
-8.6011 -10.647 -0.34805
-8.7429 -10.823 -0.33923
-8.8719 -10.709 -0.37679
-8.5824 -10.496 -0.10725
-8.8253 -10.233 -0.66985
-8.6357 -10.203 -0.49425
-8.6399 -9.9964 -0.82032
-9.193 -9.8121 -0.54507
-8.9923 -10.155 -0.64339
-8.6115 -10.058 -0.41742
-8.9338 -9.8286 -0.91513
-8.7582 -9.6951 -0.35973
-8.2481 -9.5521 -0.70417
-8.7619 -9.3727 -0.6333
-9.1107 -9.096 -0.59071
-9.0818 -9.0018 -0.62549
-8.9313 -8.9557 -0.17345
-8.4233 -8.9571 -0.67381
-8.7062 -8.8517 -0.60369
-8.938 -8.5892 -0.52301
-8.772 -8.6418 -0.26504
-8.9383 -8.8465 -0.68158
-8.8055 -8.1523 -0.69074
-8.3864 -8.6008 -0.19856
-8.6758 -8.0347 -0.020146
-8.7595 -8.2965 -0.29412
-8.7267 -8.1222 -0.14511
-8.6182 -8.074 -0.53598
-8.8175 -7.9979 -0.10912
-8.7873 -7.7441 -0.7228
-8.7561 -7.808 -0.067921
-8.8097 -7.7713 -0.44956
-8.8447 -7.429 -0.12119
-8.6209 -7.2553 -0.15835
-8.8518 -7.3857 0.49349
-8.8278 -7.0213 -0.38386
-8.5021 -7.264 0.10299
-8.9087 -7.0291 -0.30142
-8.6069 -6.9517 -0.062678
-8.7824 -6.9711 -0.27226
-8.9526 -6.7488 -0.23003
-8.6604 -6.8267 0.12782
-8.7419 -6.208 0.31465
-8.5511 -6.4433 0.069457
-8.6945 -6.5062 0.3288
-8.6674 -6.4413 -0.084117
-8.684 -5.9959 0.2474
-8.604 -6.0552 -0.3291
-8.691 -6.1358 -0.21548
-8.6441 -5.7367 -0.2243
-8.9563 -5.8641 0.33183
-9.1384 -5.5239 -0.020927
-8.9888 -5.287 -0.14328
-8.4278 -5.4135 -0.095739
-9.1025 -5.1691 -0.30215
-9.1494 -5.2294 -0.13062
-8.8571 -5.2078 -0.16393
-8.817 -5.0338 -0.33921
-9.0667 -5.1573 -0.28592
-8.8659 -4.6594 -0.12577
-8.6552 -4.6732 -0.22276
-9.0486 -4.469 -0.061263
-8.7829 -4.841 -0.43127
-8.6574 -4.3454 -0.24267
-9.1694 -4.1646 -0.41314
-8.6695 -4.1338 -0.35646
-8.849 -4.2616 -0.22352
-8.9242 -4.1171 -0.35683
-8.5557 -4.0883 -0.51553
-8.8765 -3.5497 -0.65329
-8.7947 -3.0922 -0.45636
-8.5443 -3.8015 -0.65341
-8.8231 -3.3784 -0.36769
-8.839 -3.7315 -0.34083
-9.1527 -2.946 -0.71459
-9.1122 -3.2106 -0.71295
-8.9877 -3.0891 -0.23624
-8.6574 -3.0938 -0.56936
-8.5871 -2.7582 -0.27733
-8.6495 -2.779 -0.37401
-8.6401 -2.8836 -0.41503
-9.0959 -2.1589 -0.3881
-9.0938 -2.4424 -0.71411
-8.813 -2.2828 -0.49424
-8.7508 -2.5609 -0.35056
-8.8801 -2.2322 -0.54193
-8.7314 -1.7722 -0.2114
-9.0165 -1.5511 -0.57846
-8.9146 -2.2499 -0.082996
-8.9414 -1.4936 -0.33838
-8.5694 -1.3962 -0.29453
-8.1145 -1.7876 -0.017654
-9.1672 -1.2564 -0.33493
-9.0568 -1.5278 0.17743
-8.8606 -1.6782 -0.05596
-8.5779 -1.1099 -0.17844
-8.8634 -1.3582 0.023899
-8.7275 -1.159 -0.26798
-8.7202 -0.78126 -0.10817
-8.8104 -0.94872 -0.092637
-8.7261 -0.33823 -0.12799
-9.2523 -0.59959 0.019932
-9.1677 -0.48973 -0.28148
-8.8551 -0.57533 0.053382
-8.6674 -0.38949 0.016949
-8.5797 0.064682 -0.15957
-8.8369 0.13328 -0.40179
-8.9164 0.29981 0.096533
-9.01 0.054302 -0.14665
-8.7098 -0.20205 0.017993
-9.1171 0.17997 -0.2069
-8.8265 0.39333 -0.28757
-8.8896 0.29036 -0.070432
-8.7939 0.66643 -0.23326
-8.6608 0.59018 -0.35507
-8.614 1.0835 -0.2871
-8.782 1.0822 -0.11436
-8.6502 1.15 -0.24322
-8.9092 1.1976 -0.26494
-8.4791 1.4473 -0.50246
-8.81 1.5218 -0.086557
-8.9718 1.2721 -0.17768
-8.9964 1.2173 -0.54185
-8.9232 1.6068 -0.33265
-8.5736 1.7168 -0.36526
-8.6524 1.5264 -0.27565
-8.8986 2.0473 0.090002
-8.6515 1.9833 -0.24828
-8.8814 2.0645 -0.44579
-8.7235 2.1779 -0.21517
-8.8525 2.4331 -0.11527
-9.0211 2.2948 -0.15906
-8.7758 2.5366 -0.21836
-8.9033 2.6508 -0.72761
-8.3015 3.1507 -0.79889
-8.8687 2.7399 -0.33506
-8.7077 3.3238 -0.39886
-8.4386 2.8183 -0.37253
-8.6839 2.8008 -0.54451
-8.7328 2.9555 -0.42503
-9.0399 3.4174 -0.56813
-8.2973 3.4827 -0.077404
-8.8695 3.3222 -1.1722
-8.7634 3.6295 -0.70377
-8.8026 3.9197 -0.7164
-8.7874 3.9543 -0.59563
-8.7075 3.8835 -0.17547
-8.5865 4.0388 -0.53775
-8.672 4.1113 -0.37937
-8.823 4.7308 -0.61143
-8.8718 4.2631 -0.66113
-8.4558 4.2049 -0.39766
-8.8805 4.5374 -0.092061
-9.0131 4.5921 -0.1939
-8.9972 4.5438 -0.27715
-8.8099 4.9535 -0.29873
-8.8405 4.8303 -0.11638
-8.8149 4.5082 -0.6134
-9.0912 5.2009 0.040263
-8.7748 5.3236 -0.022894
-8.5124 5.5956 -0.099196
-8.8952 5.42 -0.21599
-9.0482 5.484 -0.20709
-9.2659 5.5631 -0.057876
-8.6456 5.8992 -0.12879
-9.0708 5.7016 0.016277
-8.6353 5.9772 -0.24738
-8.4692 6.1593 -0.26268
-8.7902 6.4616 -0.14705
-8.8861 5.8729 -0.0030333
-8.9762 6.5316 -0.303
-8.8727 6.3314 -0.24675
-8.8376 6.4697 0.20207
-8.6339 6.3907 0.11769
-9.1138 6.7372 0.1193
-9.0412 7.0363 -0.012176
-8.9207 7.0584 -0.0010781
-8.8965 6.9383 0.16242
-8.9766 7.3559 -0.3331
-8.876 7.1732 -0.11828
-8.7774 7.4675 -0.26073
-8.8565 7.4537 -0.35057
-8.9113 7.555 -0.22071
-9.1585 7.7222 -0.62564
-8.7375 7.5488 -0.55815
-9.0392 8.1184 -0.17852
-8.7969 7.5216 -0.35812
-8.0167 7.7647 -0.66249
-9.0841 8.5651 -0.38986
-8.6648 8.559 -0.61434
-8.5986 8.1712 -0.55568
-8.7038 8.4878 -0.37739
-8.7476 8.6299 -0.64691
-8.811 8.3012 -0.060702
-8.8781 8.7533 -0.83154
-8.9815 8.82 -0.42831
-8.2766 8.7313 -0.40133
-9.0968 9.0344 -0.85711
-8.9819 8.9689 -0.53706
-8.8287 8.9268 -0.88374
-8.9026 9.4673 -0.36314
-8.6987 9.5242 -0.46503
-8.7097 9.5471 -0.64205
-8.7315 9.7058 -0.82856
-8.8046 9.7202 -0.42983
-8.5738 9.7122 -0.2032
-9.116 9.8688 -0.45973
-8.7164 10.213 -0.22882
-8.6293 9.8451 -0.34202
-8.7203 9.8439 -0.21385
-9.0906 10.139 -0.4403
-9.0409 10.794 -0.33253
-8.8482 10.469 -0.40886
-8.7037 10.635 -0.44294
-8.6705 10.611 -0.35875
-8.8788 10.834 -0.3773
-8.858 10.925 -0.35897
-8.6057 11.224 -0.33254
-8.8309 11.125 0.055641
-8.7731 11.148 -0.0032628
-8.446 11.343 0.054674
-8.9228 11.323 -0.062563
-8.6915 11.585 0.045621
-8.8929 11.756 -0.018394
-8.7734 11.799 0.039245
-8.7547 11.505 -0.019184
-8.5311 11.686 -0.030662
-8.942 11.93 -0.036777
-8.8561 11.694 -0.065233
-8.6802 12.106 0.26131
-8.8315 12.349 -0.18227
-8.8015 12.244 -0.087191
-9.0302 12.351 0.31654
-8.8362 12.406 -0.1319
-8.6338 12.644 -0.39994
-8.7014 12.585 0.013076
-8.9258 13.162 0.12475
-9.0148 12.647 -0.055211
-8.7546 12.709 -0.1836
-9.034 13.229 -0.17419
-8.3837 13.116 0.027896
-8.7411 13.221 -0.044784
-8.6826 13.371 -0.29403
