-115.964 -20.8872 14.421
-112.788 -21.1734 14.3632
-109.99 -20.46 14.993
-120.1 -15.253 14.994
-117.146 -17.3389 13.9586
-112.988 -17.5865 14.0193
-120.673 -11.8019 14.6569
-117.521 -12.5789 13.6933
-113.435 -12.4266 14.4029
-106.185 -10.7516 14.9054
-104.622 -10.238 14.9222
-120.759 -7.6643 14.4957
-117.547 -7.58152 14.3583
-113.674 -8.70953 14.4479
-106.76 -9.21886 14.8649
-104.759 -9.26571 14.9207
-120.457 -4.49856 14.6432
-118.628 -4.5052 14.6607
-126.242 -25.3698 19.7063
-121.985 -26.0133 19.4328
-117.607 -25.9124 19.425
-112.521 -26.542 18.3742
-108.483 -26.1137 18.9944
-131.475 -21.3134 19.2505
-127.467 -22.4785 18.0991
-122.707 -22.5022 17.6897
-117.453 -22.816 17.4343
-112.488 -23.6063 16.1891
-107.836 -22.481 17.9178
-103.538 -20.8884 19.877
-131.95 -17.325 18.3948
-127.677 -17.5686 16.2862
-122.628 -17.6522 15.9226
-118.667 -18.64 15.8874
-111.006 -16.9921 15.8031
-107.327 -17.8036 16.9358
-102.433 -17.467 18.1923
-98.9946 -16.9445 19.2597
-131.573 -12.6664 18.6028
-127.633 -12.5271 16.5559
-123.007 -12.6843 15.5983
-111.215 -12.8049 15.5617
-107.642 -12.7632 15.7998
-102.182 -12.5771 16.6575
-98.9004 -12.3231 18.6406
-130.869 -9.52237 19.5409
-127.209 -7.74206 18.6451
-123.137 -7.29959 16.4031
-115.483 -5.72889 15.1286
-112.117 -7.14242 15.6854
-107.613 -7.16588 15.5924
-102.108 -7.27158 17.1964
-99.2237 -8.51619 18.9181
-125.68 -4.25805 19.353
-122.291 -2.66532 17.7237
-117.31 -2.37651 17.5056
-112.469 -2.43801 17.7168
-107.484 -2.32831 17.8555
-103.28 -2.96283 18.6634
-120.411 0.228899 19.7553
-118.868 0.232438 19.7685
-111.858 0.5786 19.5296
-108.294 0.612291 19.7512
-126.374 -30.7402 23.9437
-122.27 -31.4521 24.1404
-117.521 -32.0249 23.9429
-112.32 -30.853 23.8198
-108.388 -30.7335 23.9434
-104.7 -30.0617 24.8887
-131.816 -26.4296 23.7097
-127.496 -27.537 22.5232
-122.682 -28.1628 21.7172
-117.403 -28.2042 21.6571
-112.944 -28.9012 21.6636
-106.99 -28.054 21.6828
-102.965 -26.6688 23.8505
-99.4444 -25.696 24.6193
-135.324 -21.9702 24.0892
-132.939 -22.7617 22.0097
-129.55 -24.2522 20.8368
-105.693 -23.0213 21.0396
-102.292 -22.5723 21.75
-97.9712 -22.0187 23.4096
-94.8673 -20.28 24.9313
-136.089 -17.1449 23.5587
-134.408 -17.5378 21.3519
-100.967 -19.6364 20.3748
-97.2026 -17.6212 22.3744
-94.8755 -19.2718 24.8723
-136.09 -12.8184 23.2777
-134.167 -12.2871 20.8909
-96.7362 -12.336 22.3309
-94.5741 -12.31 24.5751
-135.57 -8.73889 24.0601
-132.705 -7.13361 21.9357
-128.808 -5.71346 20.863
-97.5003 -7.39882 22.7106
-131.492 -4.13503 23.8873
-127.054 -2.75752 22.705
-123.806 -0.840239 21.589
-116.114 -0.15902 20.2255
-101.59 -1.32085 21.9485
-98.7402 -3.03048 23.2938
-125.093 1.67749 24.9228
-122.357 1.82556 23.0364
-117.401 1.71369 22.4034
-112.573 2.85706 22.4867
-107.499 2.62916 22.5346
-103.325 1.48432 23.3454
-110.3 5.0008 24.993
-125.113 -35.1247 29.9693
-122.066 -35.9927 28.9381
-117.47 -36.4104 27.8587
-113.208 -35.7871 28.8037
-109.467 -35.45 29.7165
-131.729 -31.092 28.7378
-127.381 -32.1308 27.6136
-123.038 -33.7218 27.1049
-117.455 -33.9002 25.6661
-112.491 -33.4018 26.4156
-107.519 -32.942 27.437
-102.873 -31.1373 28.1771
-98.8632 -30.5794 28.8133
-136.012 -25.8687 28.1785
-132.92 -27.9984 27.2928
-129.199 -29.2524 25.8354
-102.016 -28.4987 25.9498
-97.9743 -27.1294 27.7534
-136.565 -22.5085 27.6491
-96.3141 -23.3996 26.9863
-94.0787 -21.9261 28.2148
-95.3179 -15.7649 25.4705
-93.7509 -17.5141 27.9208
-137.636 -12.6223 27.6175
-95.1788 -14.1117 25.2442
-94.1321 -12.5371 27.5591
-136.663 -7.36671 27.766
-134.693 -5.55748 26.6932
-95.838 -6.6256 27.0601
-94.4613 -8.6065 27.9352
-135.08 -4.886 29.993
-132.245 -3.28434 27.8338
-127.635 -1.44776 27.3967
-100.319 -0.662172 25.847
-97.5061 -2.6187 27.7384
-125.704 1.97167 28.042
-122.745 3.82943 27.367
-117.521 3.64414 27.5671
-113.624 4.44323 27.2406
-106.848 4.34898 27.2992
-102.574 2.7336 27.5565
-99.7329 0.663126 28.9024
-122.109 5.28631 29.2294
-111.761 5.49192 27.9826
-108.714 5.31909 28.3331
-125.708 -35.4611 32.6992
-122.922 -37.3648 32.7205
-117.528 -38.2864 32.292
-112.571 -37.337 32.5512
-107.818 -36.2213 32.9099
-104.96 -35.26 34.993
-132.012 -32.1472 32.6695
-127.722 -33.6194 32.3336
-106.371 -34.5458 31.5593
-102.561 -32.8737 32.3854
-98.1015 -31.7425 32.798
-135.921 -26.5534 32.7777
-133.824 -28.9273 32.5866
-95.8747 -28.1592 31.8902
-93.6803 -26.4788 33.1526
-95.5644 -24.7751 30.114
-93.0063 -22.3971 32.611
-92.4789 -17.3146 32.4458
-92.4438 -12.6598 32.311
-137.011 -7.38682 32.3758
-95.5618 -5.60024 34.2292
-93.6985 -7.59691 32.5518
-135.545 -4.43808 32.964
-132.609 -2.67927 32.5386
-128.93 -0.933338 32.8501
-96.7216 -2.3094 32.6831
-94.9647 -4.82521 31.4216
-127.077 2.35677 32.4101
-122.685 4.69033 32.9035
-117.697 4.14904 32.6255
-112.966 4.8611 32.5486
-107.031 4.03144 33.0096
-102.524 2.9656 32.7275
-98.8142 0.858735 32.1036
-122.339 5.30012 32.364
-116.231 5.13712 33.3883
-112.469 5.43091 32.589
-108.796 5.3937 31.9637
-126.514 -35.7174 38.0203
-122.771 -37.966 37.3021
-117.429 -39.0791 37.6881
-112.539 -38.0579 37.4952
-107.652 -36.5032 37.6232
-104.821 -35.1548 37.2616
-132.082 -32.354 37.5838
-128.267 -34.4265 37.2297
-102.346 -34.2046 37.4436
-97.4081 -32.6766 37.5099
-94.4699 -30.5104 38.9634
-135.952 -26.2715 37.3575
-134.259 -28.2191 37.8808
-95.698 -29.4114 35.8083
-93.2963 -27.5685 37.5932
-137.689 -22.6363 37.3615
-92.1454 -22.4722 37.8684
-137.789 -17.3916 37.5591
-91.8127 -17.4217 37.7382
-137.654 -12.5574 37.4252
-92.1661 -12.5037 37.533
-136.334 -7.37296 37.4363
-134.737 -5.30538 36.8985
-95.5629 -6.22304 38.0075
-93.6646 -7.91588 37.4973
-135.245 -4.48434 36.9676
-132.487 -3.15655 37.4639
-128.501 -1.45127 37.6292
-100.036 -0.359616 38.653
-97.3418 -2.4232 37.5751
-126.822 2.51699 37.4493
-122.679 4.47409 38.0723
-117.709 4.1571 37.6692
-112.451 4.53484 37.9301
-107.128 3.82868 37.6521
-102.321 1.96445 37.5888
-99.8008 0.382947 37.6302
-122.363 5.28028 36.5686
-116.395 5.32544 37.0299
-112.642 5.53379 36.4489
-108.364 5.44844 36.4973
-126.292 -35.784 42.0592
-122.623 -37.4601 42.5634
-117.39 -38.0981 42.7326
-112.47 -37.3982 42.6468
-107.741 -35.978 42.4172
-104.8 -35.0595 40.2925
-131.828 -31.6839 42.0001
-128.265 -33.8766 42.8927
-124.582 -34.6392 44.586
-105.922 -34.4473 43.874
-102.626 -33.4621 42.5839
-97.3691 -32.7437 42.6391
-94.2607 -30.8654 42.0635
-135.412 -25.2514 40.9014
-133.576 -27.6152 42.6622
-93.3499 -27.4655 42.4845
-136.606 -22.3577 42.5666
-134.628 -24.3853 43.8164
-92.3823 -22.3898 42.6292
-137.07 -17.3638 42.4726
-92.2842 -17.4131 42.6725
-136.656 -12.5739 42.5676
-95.0289 -11.6523 44.4392
-93.74 -12.829 42.5066
-135.838 -8.31075 42.2692
-133.606 -6.65842 43.168
-95.6618 -6.75295 42.5215
-94.645 -8.361 42.5614
-131.671 -3.71671 42.1574
-128.328 -1.57378 42.8373
-105.368 -0.36338 44.2318
-102.379 -1.05796 43.9396
-98.0726 -2.61771 42.4856
-126.472 1.71838 42.1178
-122.574 3.03582 42.5337
-117.451 3.09237 42.4199
-112.342 4.35934 42.7022
-107.448 2.66783 42.6046
-102.669 0.998815 41.5855
-99.716 0.391608 41.3348
-113.088 5.22499 41.1458
-147.3 -91.0345 49.6675
-143.769 -90.7941 49.715
-150.558 -86.8748 49.8404
-147.562 -87.6322 49.2973
-143.731 -87.1428 49.4528
-146.818 -83.77 49.6499
-143.967 -83.719 49.8227
-127.75 -35.0837 45.3448
-121.614 -36.2516 46.2977
-118.024 -36.5239 47.3884
-112.903 -36.0567 46.6804
-109.643 -35.4824 45.6269
-137.47 -30.136 49.943
-130.577 -30.5115 45.4732
-127.224 -32.5565 47.289
-122.464 -33.6335 48.3184
-117.415 -33.527 48.9444
-111.885 -34.3758 48.8144
-107.499 -33.2103 47.5843
-102.356 -31.7048 47.4443
-97.8923 -31.444 46.9763
-94.936 -30.039 45.17
-140.934 -26.1459 49.3176
-137.751 -27.3719 49.524
-132.476 -27.1814 47.4097
-128.371 -29.4347 48.1726
-100.733 -29.8857 49.956
-96.5669 -28.2054 48.5579
-94.2136 -26.7929 46.4142
-150.44 -20.619 49.928
-146.94 -21.6767 49.5806
-142.203 -22.386 48.5728
-135.704 -22.1122 46.5789
-133.936 -22.46 48.6596
-95.1807 -23.2114 49.6574
-93.5912 -22.5515 47.274
-151.789 -17.1816 49.3034
-147.345 -17.4546 48.3003
-142.365 -17.4658 47.7585
-135.653 -17.736 46.9598
-134.353 -17.4653 48.6925
-96.5658 -16.8057 49.1283
-93.4393 -17.7483 47.0165
-147.086 -12.3484 47.0196
-142.566 -12.5372 47.6411
-135.684 -13.4446 46.4043
-134.086 -12.0016 48.3029
-96.7122 -12.5678 48.1632
-94.6251 -12.4224 45.8378
-142.575 -7.52215 48.4433
-136.188 -9.40176 46.1822
-132.129 -7.60832 47.3226
-126.817 -5.37196 49.4516
-124.587 -5.36677 49.6093
-100.692 -6.22394 49.2557
-97.3775 -7.32425 47.7248
-94.6024 -9.05981 45.695
-143.75 -3.90435 49.1266
-130.431 -4.10806 47.2467
-127.451 -2.82542 47.3496
-123.335 -1.5991 49.0339
-117.376 -0.517988 49.52
-114.625 -0.0573495 49.8968
-105.459 -0.490856 48.5267
-102.996 -2.65286 47.5081
-98.7164 -3.82896 46.3982
-165.395 3.45965 49.755
-162.378 2.30584 47.832
-125.677 0.427138 45.7776
-122.2 1.17264 46.7674
-117.155 1.7692 47.3377
-112.763 2.88445 47.7534
-107.516 1.50512 47.4253
-104.891 0.177099 45.7463
-165.529 7.51369 49.4714
-162.695 7.50147 48.0912
-114 5.03429 45.393
-165.05 11.208 49.719
-162.568 11.7331 49.3631
-157.962 11.0138 49.404
-150.698 -95.7562 54.5477
-147.394 -96.8078 53.3485
-142.321 -97.0406 53.0637
-138.457 -96.1384 54.0658
-156.373 -90.6882 53.9493
-152.441 -92.6013 52.7055
-147.865 -93.6527 50.9947
-142.003 -92.8728 50.787
-137.95 -92.6455 52.8807
-157.279 -87.5311 53.0954
-153.266 -87.5432 50.8564
-140.979 -87.4689 50.4398
-137.363 -87.5453 52.7648
-157.263 -82.6216 53.3187
-152.895 -82.6256 51.2631
-147.848 -81.2412 50.5637
-142.097 -82.0565 50.6007
-137.388 -82.5375 52.5349
-134.435 -81.9265 54.797
-156.224 -79.2908 54.2638
-152.343 -77.8418 53.274
-147.392 -77.3913 52.1449
-142.511 -77.4171 51.464
-150.51 -74.514 54.4577
-146.944 -72.8998 53.9926
-142.365 -72.7467 52.3573
-145.72 -67.6605 54.6683
-129.85 -67.258 54.924
-132.824 -42.7241 51.8738
-128.543 -42.1319 54.0036
-146.313 -36.3573 54.4584
-137.241 -37.519 51.7887
-132.933 -37.4767 51.7578
-128.618 -37.2915 53.8002
-118.879 -35.3564 50.2423
-150.622 -30.6747 54.4157
-147.501 -32.4624 53.4763
-142.391 -32.4667 52.2035
-137.46 -32.5254 50.7563
-132.379 -32.5837 51.7519
-125.726 -31.6532 51.151
-122.905 -31.5115 51.7579
-117.32 -31.9442 51.0974
-113.081 -31.8547 51.0545
-107.907 -30.8467 50.542
-104.421 -30.2658 50.1147
-151.399 -26.9957 53.4157
-147.924 -27.6284 51.7723
-142.938 -28.1605 50.6583
-136.316 -28.518 50.1146
-131.382 -26.6479 51.6641
-127.663 -28.2478 52.7308
-122.189 -28.306 53.4973
-117.865 -27.6559 53.1455
-112.417 -27.4363 53.1867
-107.793 -27.3049 51.8494
-102.478 -27.6815 51.0033
-98.4188 -26.788 51.0111
-155.33 -20.306 54.982
-152.595 -22.2757 52.1315
-148.195 -23.6328 50.4918
-144.36 -24.97 50.02
-135.267 -22.481 50.2755
-132.037 -22.4883 52.528
-129.696 -23.8885 54.789
-120.1 -24.988 54.993
-116.447 -23.8791 54.2847
-112.903 -23.4452 54.2984
-106.356 -22.777 53.6031
-102.462 -22.3968 52.9149
-97.5771 -22.294 51.4174
-156.179 -17.0615 52.555
-153.979 -18.4189 50.8411
-135.719 -18.0459 50.3732
-132.512 -17.4833 52.4868
-129.36 -19.43 54.97
-105.584 -18.3691 54.3482
-102.426 -17.3988 54.103
-98.4793 -17.6463 52.0132
-160.593 -10.611 53.8867
-158.458 -12.8355 51.8971
-136.649 -12.3172 51.0535
-132.126 -12.5419 52.1219
-129.058 -11.2065 53.9738
-121.469 -11.0956 54.4224
-119.297 -10.5923 54.6605
-101.782 -12.5788 53.4164
-98.3536 -12.4852 51.7989
-162.265 -7.47604 52.5601
-140.51 -5.28165 50.2025
-137.346 -7.38012 51.5924
-130.81 -8.12581 51.0654
-127.534 -7.53221 52.4829
-122.679 -7.37288 52.6951
-118.262 -7.01336 54.0753
-112.197 -5.58062 54.8214
-106.065 -5.45136 54.3483
-102.43 -7.39127 52.6695
-98.683 -9.29438 50.7986
-166.168 -1.31537 52.9629
-164.341 -3.63135 51.6678
-141.904 -2.02689 50.9365
-137.424 -2.68755 52.9142
-134.51 -3.52565 54.6575
-121.621 -2.93203 50.9798
-117.391 -2.66163 52.1387
-112.679 -2.27839 53.1756
-107.499 -2.43073 52.5394
-104.054 -3.56621 51.2331
-170.01 4.9449 53.959
-167.668 2.73798 52.3455
-142.262 2.65626 52.6422
-138.108 1.65515 54.3504
-112.261 0.842762 50.8434
-109.273 0.561202 50.7792
-170.87 8.00761 54.0159
-168.197 7.55543 51.3953
-143.3 7.33229 53.9313
-171.118 12.4282 53.8153
-167.525 12.4685 51.2987
-162.798 14.0079 50.6439
-157.431 13.6274 51.2885
-152.541 12.5211 52.1107
-148.251 12.0923 53.8104
-144.85 10.173 54.551
-171.052 15.901 54.595
-167.479 16.8616 53.2898
-163.078 17.0459 53.2456
-157.421 16.526 53.6225
-152.89 16.0116 54.4194
-151.189 -95.8178 57.4762
-147.446 -98.4276 57.5872
-133.981 -96.6227 58.9186
-160.448 -90.155 58.9862
-157.313 -91.6393 57.2716
-153.582 -93.9489 57.2874
-135.263 -93.021 55.7563
-133.482 -92.473 57.9069
-132.944 -87.3968 57.4816
-159.107 -80.925 55.2473
-132.164 -82.1714 57.2512
-129.62 -80.089 59.688
-160.766 -78.9664 58.7453
-157.844 -77.2451 57.4216
-153.927 -75.7377 55.6367
-131.634 -77.5491 56.4151
-129.08 -76.5895 59.115
-155.728 -74.1903 58.936
-152.355 -72.3616 57.3859
-148.88 -71.2575 55.4592
-130.413 -73.2123 56.2007
-128.557 -71.8611 57.9802
-151.564 -67.5007 58.8923
-148.418 -67.7576 56.2053
-130.26 -69.49 55.173
-127.726 -67.3819 57.5777
-152.07 -62.4803 58.6823
-148.057 -62.6296 55.8679
-127.208 -62.2875 57.2084
-152.629 -57.5708 58.3569
-124.85 -45.817 59.143
-126.32 -42.7311 56.4878
-124.485 -42.099 59.1728
-126.208 -37.39 56.434
-124.063 -37.4868 59.0758
-149.96 -33.234 55.011
-126.457 -32.5467 56.3788
-124.086 -32.8644 58.7187
-153.662 -27.4209 57.3355
-126.838 -26.3969 56.0192
-123.243 -26.07 56.3565
-155.374 -20.7652 57.4632
-154.508 -22.9408 57.9074
-130.495 -22.213 55.4653
-127.586 -22.3962 57.1506
-122.61 -22.6616 58.2907
-117.648 -22.4607 56.6636
-112.141 -21.5774 56.0017
-108.506 -21.5474 55.5419
-101.524 -20.2412 55.0765
-156.617 -17.4301 57.5714
-130.816 -16.9358 56.0005
-127.656 -17.625 58.2059
-122.67 -17.3556 58.2251
-117.395 -17.3815 56.4087
-112.63 -17.5821 57.4587
-107.373 -17.5031 56.4328
-104.13 -16.4325 56.2618
-160.43 -10.7721 56.7061
-158.87 -12.9913 57.767
-130.672 -14.3358 55.6055
-127.309 -12.7301 56.6185
-123.029 -13.1196 56.4027
-117.465 -12.7793 56.1701
-112.309 -12.2204 57.32
-107.484 -12.4496 56.7172
-104.124 -12.3263 56.0908
-161.967 -7.70325 57.5043
-131.749 -6.82575 55.888
-127.547 -8.57541 56.8457
-124.693 -9.88917 55.0553
-116.575 -8.6065 55.8319
-112.465 -7.82693 56.0537
-107.477 -7.61773 56.0602
-104.523 -8.32987 55.5743
-166.352 -1.55562 57.2938
-164.12 -3.97992 58.4067
-135.33 -0.35462 55.244
-132.059 -2.30523 57.1328
-129.221 -2.9831 59.1949
-110.104 -4.36736 55.3344
-108.965 -4.18317 55.5056
-170.62 4.08408 57.3576
-168.791 1.51295 57.2497
-136.337 2.38381 55.973
-132.97 2.20358 58.5702
-172.281 7.5723 57.5214
-141.145 8.53047 56.0755
-137.739 7.38176 58.0486
-134.247 5.61938 59.6925
-175.37 14.675 59.568
-173.575 12.4571 57.3837
-146.752 13.8805 56.3625
-142.678 12.1317 58.0287
-139.38 10.8542 59.4293
-175.285 17.9978 59.4127
-173.108 17.9389 56.9061
-167.809 19.1244 55.5319
-162.669 19.2951 55.5943
-157.663 19.0392 56.0821
-151.972 18.0986 57.0694
-148.126 16.5105 58.2371
-172.469 21.0088 58.6869
-167.577 21.6454 58.3675
-162.89 21.3981 58.0067
-157.629 21.2148 58.5627
-153.462 20.4546 59.2736
-145.448 -100.372 63.4743
-142.684 -101.669 62.8144
-152.439 -96.3368 62.8246
-147.84 -98.7805 62.7271
-129.203 -96.7905 64.1387
-160.797 -90.3213 62.3002
-157.454 -92.3435 62.6815
-154.29 -94.3438 61.331
-131.128 -92.7932 61.0893
-128.784 -92.2977 63.6188
-130.505 -88.447 61.0443
-128.51 -87.4007 63.0826
-130.09 -84.505 60.426
-127.824 -81.8575 62.3679
-161.862 -78.0756 62.3298
-158.909 -75.5723 61.6677
-126.548 -77.6924 62.5534
-124.62 -76.8865 64.461
-156.566 -72.7552 62.6714
-154.278 -70.6842 61.1684
-126.263 -72.9054 61.3893
-124.098 -72.6097 64.0049
-155.133 -67.8387 64.6533
-154.123 -67.3299 62.2014
-125.56 -67.276 60.6483
-123.826 -67.4307 63.1928
-155.285 -62.2639 63.747
-154.317 -62.9011 61.1686
-125.32 -62.044 60.3088
-155.357 -57.9073 62.7912
-154.743 -57.5441 60.5189
-125.38 -58.328 60.067
-155.2 -54.873 63.6745
-122.717 -42.6369 62.0821
-121.585 -37.7806 62.0232
-119.458 -36.9066 64.3264
-153.185 -32.3863 62.3792
-121.208 -32.8927 61.3984
-118.866 -32.2832 63.8699
-152.757 -27.3994 62.0488
-120.943 -27.1122 60.8899
-118.95 -27.4441 63.421
-152.383 -22.4974 62.5317
-120.727 -22.4182 60.9161
-119.196 -22.8124 63.1956
-155.495 -16.3587 60.7233
-153.099 -17.9235 62.743
-121.002 -17.0675 61.8995
-119.55 -18.5538 63.9434
-156.933 -11.9233 61.6538
-153.908 -13.1842 64.1491
-122.365 -12.4564 62.5007
-160.8 -6.73688 60.9441
-158.338 -8.09244 62.8743
-125.658 -6.28474 61.5716
-124.003 -8.01066 63.0566
-165.937 -0.455622 60.6113
-162.923 -2.49446 62.536
-159.74 -4.8274 64.636
-127.364 -2.65122 62.3467
-170.564 4.54636 61.2806
-167.872 2.28589 62.375
-164.49 0.052878 64.448
-131.187 3.22315 62.197
-129.363 0.972008 62.717
-172.278 7.52574 62.315
-169.94 5.2204 64.801
-135.96 8.92345 62.0573
-133.623 6.66955 62.7841
-175.375 14.4625 62.2147
-174.279 11.9541 62.4752
-141.6 13.7974 61.9312
-138.386 11.5038 62.7893
-176.189 18.0073 62.0977
-150.737 19.7333 60.6657
-147.485 18.0349 62.2176
-143.909 15.8399 63.0456
-176.334 20.8266 63.4645
-172.935 23.9965 62.9313
-167.476 24.1222 62.5078
-162.929 23.8603 62.6481
-152.642 21.1104 62.6901
-169.43 25.1595 64.388
-157.261 -102.864 67.8445
-152.868 -102.234 67.7064
-147.152 -100.529 67.7232
-142.483 -102.054 67.6057
-156.431 -97.4694 67.8688
-152.649 -98.8244 65.7135
-148.991 -99.5816 65.9979
-127.511 -97.7716 67.4934
-160.492 -90.251 67.4918
-158.039 -92.4567 67.7208
-126.169 -92.8478 67.0605
-124.704 -91.2614 69.2618
-163.017 -87.7269 67.5324
-125.834 -88.1995 66.348
-124.239 -87.1686 68.4652
-164.466 -82.4708 67.5271
-125.27 -83.6497 65.7537
-123.547 -82.3345 67.8225
-162.674 -77.5867 67.4846
-122.488 -77.3455 67.7348
-160.395 -74.4862 68.401
-158.328 -72.2748 67.3555
-121.87 -72.6357 67.4255
-156.38 -67.9504 67.4499
-121.268 -67.6512 67.5135
-156.208 -62.6431 67.7124
-121.414 -62.4282 67.3968
-155.922 -57.5084 67.5808
-155.272 -54.1004 67.0586
-121.493 -52.6927 67.3901
-119.79 -50.609 69.59
-121.275 -48.0163 66.7257
-119.391 -46.8444 68.9821
-120.467 -43.0443 65.8977
-118.651 -42.226 68.3381
-117.915 -37.4405 67.6003
-150.957 -32.5756 67.2546
-149.72 -31.3763 69.4047
-117.467 -32.3515 67.5073
-150.513 -27.6723 65.8755
-149.19 -27.3399 68.5227
-117.854 -27.529 67.9769
-150.242 -22.846 65.3412
-120.18 -20.966 69.699
-118.82 -22.8073 67.5011
-120.892 -16.7762 67.9839
-119.555 -18.938 66.431
-151.829 -12.8322 67.5168
-122.425 -12.2862 67.3516
-156.57 -6.7404 67.2764
-154.259 -9.0051 68.0544
-125.501 -6.24506 68.1697
-124.162 -8.14247 66.7726
-161.658 -1.84122 67.0006
-158.94 -4.25305 67.3966
-127.205 -2.75934 67.6114
-167.184 3.226 67.3139
-164.317 0.793618 68.2637
-131.1 3.21438 67.6234
-129.265 0.945936 66.8861
-171.274 7.93802 67.4307
-169.412 5.6726 68.051
-135.79 9.09466 67.3991
-133.509 6.51209 67.0733
-175.06 14.919 66.302
-173.82 12.6357 67.6811
-141.057 14.0219 67.1919
-138.116 11.4715 67.3101
-176.221 17.6528 67.3894
-174.81 15.22 69.871
-150.5 19.667 69.225
-147.516 18.3879 67.5547
-143.755 16.0138 67.6851
-172.808 23.7067 67.5094
-167.48 24.1455 67.406
-162.35 23.6116 67.343
-157.431 22.5892 67.563
-152.884 21.0897 67.2736
-149.71 20.017 65.065
-157.021 -102.604 72.0152
-152.69 -102.364 72.4648
-147.242 -100.59 72.0593
-142.47 -101.833 72.4731
-156.32 -97.4801 71.9462
-153.359 -98.4497 74.2063
-148.975 -99.7978 74.325
-126.37 -97.4699 72.3398
-160.581 -90.3859 72.9158
-157.784 -92.8649 72.5474
-125.147 -94.7267 72.735
-124.257 -92.2079 72.5564
-165.343 -85.8758 74.277
-163.302 -88.044 72.4051
-123.127 -87.5154 72.3484
-165.277 -82.7137 73.0525
-164.785 -82.1291 71.0862
-121.938 -82.3857 72.4685
-163.404 -77.9685 72.4891
-120.876 -77.405 72.6192
-120.346 -73.0762 71.8012
-119.882 -71.431 73.461
-120.19 -69.216 70.178
-119.579 -67.5342 72.4754
-120.04 -61.033 70.235
-119.287 -62.7197 72.5254
-155.67 -57.4727 72.6992
-119.039 -57.6017 72.5831
-155.088 -54.5168 72.5752
-117.926 -47.5453 72.5563
-117.447 -37.462 72.7419
-118.07 -32.4492 72.4659
-120.872 -26.9782 73.9579
-118.996 -27.9379 72.0549
-121.995 -22.4067 72.744
-119.507 -24.548 70.8673
-125.44 -16.2537 74.418
-123.246 -17.9714 72.2334
-151.339 -12.4046 72.8333
-149.81 -14.98 73.423
-125.976 -12.3736 73.6434
-124.143 -12.9684 71.1209
-155.901 -6.15139 72.5353
-154.043 -8.48417 72.3055
-161.259 -1.27368 72.3334
-158.307 -3.76764 72.5074
-130.62 -1.50367 73.4163
-128.772 -3.04512 71.9149
-166.468 3.43467 72.1907
-164.018 1.27232 73.052
-135.4 4.58395 73.73
-132.606 1.94616 72.5727
-170.905 8.55454 71.7069
-168.998 6.60973 73.0857
-140.06 9.5059 74.037
-137.305 7.65453 72.6103
-134.535 5.62225 71.0997
-172.346 12.5202 72.5996
-145.23 14.5017 73.5493
-142.367 12.6485 72.6155
-139.05 10.8495 70.759
-175.19 19.0045 70.324
-173.02 17.6453 72.7731
-169.06 19.71 74.922
-155.235 19.7005 74.329
-152.121 19.0259 72.8329
-147.816 16.8817 72.4422
-144.545 15.426 71.0675
-172.116 21.2758 71.6436
-167.583 22.3097 72.5324
-162.767 22.2132 72.8795
-157.514 21.1859 72.2913
-153.532 20.3618 70.821
-146.021 -100.229 76.3239
-142.482 -101.484 77.4493
-129.265 -100.522 76.1575
-152.044 -96.7832 76.9877
-148.014 -99.0068 78.0219
-130.42 -99.4363 79.1877
-127.799 -97.2963 77.4047
-161.228 -90.4874 77.4907
-157.337 -92.7943 77.3563
-154.524 -94.577 79.2244
-126.058 -92.9109 78.2452
-124.601 -91.2436 76.4177
-165.242 -86.0416 77.4145
-163.734 -88.7489 77.3845
-125.285 -89.1845 79.3305
-123.856 -87.383 77.4307
-165.491 -82.81 77.4129
-164.915 -80.456 79.715
-122.526 -82.4066 77.4698
-163.552 -77.7201 77.6223
-121.375 -77.5483 77.6554
-160.853 -74.1927 77.3397
-120.609 -73.165 78.3127
-119.799 -71.2344 76.6462
-120.275 -68.2345 79.665
-119.396 -67.415 77.6116
-155.847 -62.5503 77.375
-120.235 -62.3055 79.84
-119.035 -62.5033 77.7076
-155.412 -57.4039 77.6703
-155 -55.02 79.683
-120.195 -57.2945 79.744
-118.667 -57.1596 77.6955
-155.075 -54.777 76.969
-154.308 -52.2719 77.6879
-120.5 -51.3643 79.6785
-152.403 -47.3024 77.6921
-120.63 -46.861 79.4873
-118.28 -47.6446 77.0889
-150.934 -42.2493 77.8521
-121.002 -42.1814 79.093
-118.371 -42.732 76.6841
-150.336 -38.1597 78.6734
-149.653 -36.8599 76.4552
-121.829 -37.4559 78.533
-118.814 -38.0538 75.9044
-150.04 -34.019 79.525
-149.344 -32.5483 77.5777
-125.33 -30.351 79.76
-122.239 -32.3025 77.2804
-119.66 -33.7535 75.4285
-148.979 -27.465 77.476
-125.841 -26.8458 78.829
-123.159 -27.6884 76.3671
-149.1 -22.5047 77.6994
-126.602 -22.2896 77.8841
-124.377 -23.0173 75.383
-150.245 -15.8315 77.956
-149.561 -18.1316 77.3131
-127.524 -17.4763 77.7818
-151.678 -12.3505 77.6203
-130.12 -11.057 79.761
-128.386 -12.5485 77.4484
-155.756 -5.84816 77.4485
-153.916 -8.43335 77.7368
-130.859 -7.29313 78.5018
-129.277 -8.04245 76.4538
-160.67 -0.870476 76.1287
-157.824 -3.12588 77.6655
-132.604 -2.45537 77.4333
-165.843 4.2591 75.971
-162.825 2.50467 77.8065
-159.52 0.22982 79.738
-136.85 2.99036 77.81
-134.532 1.22664 76.354
-167.042 7.63348 77.0446
-163.931 6.38505 79.1108
-141.599 8.31355 77.9337
-138.696 5.97145 76.7416
-170.475 13.3105 75.4042
-167.611 12.3977 77.438
-163.223 13.1337 79.5196
-150.665 14.479 79.489
-146.851 13.0252 78.099
-143.778 11.3005 76.6286
-170.495 16.4233 75.2998
-167.516 17.5581 76.6982
-162.529 17.596 78.2129
-157.505 17.7895 77.9317
-152.648 16.8697 77.4507
-148.818 15.5819 76.4306
-166.493 20.3623 75.476
-162.675 20.7444 75.62
-158.997 20.3133 75.3157
-145.327 -100.167 83.1633
-142.318 -100.979 82.3785
-152.314 -96.4349 82.5765
-147.79 -99.053 82.5775
-136.791 -98.9942 84.2884
-132.479 -97.5046 82.4314
-129.395 -96.3457 80.5435
-161.014 -90.5971 82.1263
-157.589 -92.7872 82.6544
-154.543 -94.6787 81.5237
-131.643 -93.0984 83.9406
-128.399 -92.3933 81.4432
-165.13 -85.837 80.7685
-163.629 -87.6535 82.5463
-130.725 -89.2157 84.433
-127.111 -87.6988 81.8365
-124.795 -85.605 80.31
-165.201 -83.49 81.2804
-164.463 -82.1882 83.1443
-127.043 -82.6854 83.0417
-124.316 -82.1978 80.7323
-162.799 -77.592 82.5718
-126.571 -77.2848 83.6614
-123.562 -77.1934 81.1589
-160.667 -74.5997 82.6765
-158.693 -72.042 82.6804
-126.361 -72.5326 84.0786
-123.089 -72.345 81.5178
-156.53 -67.5332 82.4534
-125.922 -67.3166 83.8723
-122.362 -67.7134 81.2732
-155.525 -62.4551 82.6514
-126.281 -62.5599 84.002
-122.659 -62.49 81.3885
-155.324 -57.2178 82.5777
-126.519 -57.8988 84.0659
-122.781 -57.6774 81.2995
-155.192 -54.0149 83.6732
-154.561 -51.9388 81.9977
-126.532 -52.6131 84.1545
-122.78 -52.6488 81.2617
-153.577 -47.5227 82.554
-126.56 -47.3106 83.9348
-123.306 -47.6801 81.454
-152.253 -42.5885 82.5898
-126.431 -42.4826 83.5767
-123.55 -42.3779 81.1331
-150.998 -37.357 82.6674
-126.395 -37.5252 83.2702
-124.14 -38.2264 80.8949
-150.241 -33.0957 81.9959
-149.806 -31.2792 82.769
-126.704 -32.5434 82.3129
-124.715 -33.687 80.2135
-149.46 -27.3621 82.309
-128.097 -27.7447 82.565
-149.134 -22.0712 82.4912
-130.317 -21.0713 84.2383
-128.832 -23.0396 81.9727
-150.13 -16.1175 80.7702
-149.335 -17.7991 82.7909
-130.824 -17.1207 83.5752
-129.364 -17.5838 80.9428
-150.973 -11.977 82.1197
-149.677 -13.589 84.365
-131.519 -12.6301 82.7621
-129.81 -13.952 80.648
-152.32 -7.34599 82.8069
-135.515 -6.08815 84.2507
-133.044 -7.98046 82.3821
-156.459 -1.9191 81.3204
-152.698 -2.72744 83.9552
-140.305 -0.499015 84.8615
-137.043 -1.73467 82.8761
-134.189 -3.61427 80.9666
-160.587 3.08455 80.4342
-157.559 2.55527 82.3644
-152.577 2.50605 84.3633
-147.387 4.16423 84.7129
-142.158 3.03762 83.6915
-138.877 1.86244 81.8563
-161.424 7.81644 80.7151
-157.509 7.49507 82.4198
-152.374 7.55242 83.558
-147.327 7.79506 82.9012
-143.4 6.95947 81.5968
-161.087 12.1668 80.3095
-157.35 12.6592 81.0412
-152.506 12.2713 81.4276
-148.358 11.3613 80.9636
-142.78 -100.177 85.3875
-152.325 -96.6988 87.2762
-147.427 -98.9284 87.609
-142.203 -98.4901 87.9492
-137.95 -96.8833 86.5603
-160.06 -90.804 85.095
-157.223 -92.5186 87.4207
-154.71 -94.7023 88.7643
-137.062 -92.9469 88.1161
-133.853 -91.9318 85.8634
-161.809 -87.4829 86.9582
-159.532 -88.8154 89.0816
-136.192 -88.3565 89.2317
-133.038 -87.2311 86.8217
-162.387 -82.5555 87.5151
-135.2 -84.851 89.567
-132.416 -82.8781 87.5922
-129.51 -80.775 85.556
-161.271 -77.8479 86.9777
-159.327 -76.1643 89.0253
-131.906 -77.9948 88.1823
-128.85 -77.0957 85.6552
-160.16 -74.632 85.104
-157.758 -72.3966 87.6386
-131.388 -72.8504 88.676
-128.686 -72.5716 86.1469
-155.809 -67.8413 87.6454
-154.71 -65.845 89.414
-131.06 -67.5561 88.8979
-128.567 -67.1608 86.2941
-155.325 -62.6424 86.2664
-154.412 -62.1337 88.5566
-130.841 -62.5259 88.5987
-128.721 -62.0889 86.0254
-155.183 -57.4452 86.1174
-154.129 -57.2739 88.461
-131.03 -57.6308 88.7186
-128.976 -57.2594 86.2326
-155.157 -54.01 85.6823
-154.132 -52.4535 87.4615
-130.83 -52.5964 89.0115
-128.816 -52.6577 86.4997
-152.793 -47.7576 87.5975
-130.743 -47.6522 89.0927
-128.769 -47.8035 86.4935
-151.626 -42.9121 86.9408
-149.68 -41.314 89.5117
-130.684 -43.0965 89.0314
-128.759 -42.3833 86.6099
-150.443 -38.6978 86.2997
-148.856 -36.8193 88.4658
-130.571 -37.9233 89.0734
-128.965 -37.5957 86.9945
-148.062 -32.234 87.956
-130.932 -32.4142 88.5594
-129.117 -32.4808 86.0857
-147.297 -27.2538 87.7455
-144.94 -26.006 89.759
-131.411 -27.2923 87.8876
-129.723 -27.7083 85.5253
-146.89 -22.3114 87.2661
-144.163 -22.793 89.4983
-132.304 -22.4016 87.7027
-146.92 -17.3076 86.9726
-142.796 -17.4606 89.2143
-136.898 -16.0781 89.4563
-133.236 -17.7925 87.2214
-147.696 -12.6155 86.5966
-142.447 -12.4277 88.7015
-137.582 -12.4088 88.5867
-134.045 -12.8822 86.2764
-150.325 -6.3921 85.1925
-147.847 -7.45462 86.3986
-142.242 -7.34058 87.8595
-137.661 -7.74464 86.8564
-150.35 -3.11923 85.1837
-147.459 -2.37787 86.0118
-142.528 -2.58766 86.4699
-138.719 -3.61623 85.6369
-150.33 0.63155 85.038
-147.44 1.59881 85.4022
-143.724 1.0063 85.4246
-142.831 -95.9625 90.9177
-156.103 -91.386 91.0836
-152.703 -92.7016 92.7491
-147.482 -92.7723 93.8854
-142.482 -92.5875 92.2836
-139.187 -91.4182 90.6838
-160.35 -85.711 90.013
-157.309 -87.4271 92.2306
-154.169 -88.2074 94.4791
-145.953 -89.617 94.8893
-142.488 -87.6 93.8459
-138.218 -87.0898 91.3861
-160.34 -83.3978 90.4125
-157.639 -82.4511 92.8752
-141.393 -83.1345 94.3059
-137.875 -82.6134 92.2666
-134.72 -80.672 90.285
-157.049 -77.5929 92.4036
-154.405 -76.8773 94.427
-140.15 -79.008 94.718
-137.402 -77.3406 93.2152
-134.43 -77.3337 90.7323
-156.219 -72.9072 91.0376
-153.498 -72.0995 93.4965
-136.874 -72.2321 93.9499
-133.885 -72.3481 91.1222
-155.04 -68.736 90.196
-152.816 -67.4283 92.3861
-149.86 -65.054 94.492
-135.991 -67.5497 94.0539
-133.696 -67.2348 91.6791
-152.064 -62.6437 91.9457
-148.945 -61.5762 94.4432
-135.6 -62.8032 94.3681
-133.487 -62.6705 91.7847
-151.833 -57.4933 91.4891
-148.769 -57.3418 93.9796
-135.254 -57.0416 94.6092
-133.742 -57.5002 92.3047
-151.383 -52.7371 91.2812
-148.071 -52.2122 93.8659
-135.204 -52.5252 94.7024
-133.587 -52.4845 92.5784
-150.687 -48.3902 91.082
-147.679 -47.4543 93.2222
-143.842 -46.844 94.7754
-135.481 -47.5715 94.7607
-133.07 -47.2757 92.2054
-150.19 -44.468 90.268
-147.533 -42.7506 92.1306
-142.507 -42.7095 94.1851
-137.195 -42.3905 94.5309
-133.192 -42.2892 92.329
-146.759 -37.7081 91.2622
-142.915 -37.3758 92.921
-146.085 -32.9649 90.5038
-142.733 -32.4368 91.9241
-145.23 -28.313 90.061
-142.639 -27.6923 90.9651
-137.231 -27.3038 91.9799
-133.97 -27.4696 91.0063
-141.351 -22.7257 90.4473
-137.398 -22.3717 90.971
-134.549 -23.2893 90.5387
-140.53 -18.606 90.046
-137.993 -18.2163 90.3315
-152.052 -87.3325 95.5561
-147.419 -87.6116 95.6107
-144.355 -85.8905 95.171
-147.556 -82.6733 96.5536
-143.581 -81.9021 95.5755
-151.943 -77.5668 96.0185
-147.732 -77.513 97.0459
-142.723 -77.5596 96.1393
-139.27 -75.492 95.108
-150.724 -72.8186 95.6876
-147.131 -72.1366 97.0449
-142.678 -72.2842 96.9694
-139.022 -72.2308 95.5958
-147.245 -67.5339 96.5087
-142.758 -67.4084 97.2041
-138.446 -67.299 95.9219
-146.426 -62.5114 96.2176
-142.197 -62.2583 97.0485
-138.106 -62.564 96.096
-146.074 -57.7226 95.6244
-142.348 -57.5605 96.6855
-137.727 -57.5196 96.0064
-145.536 -53.1704 95.318
-142.343 -52.5929 96.0911
-137.742 -52.5098 95.8056
-141.984 -47.8361 95.3558
-137.716 -47.8289 95.4024
-138.653 -44.694 95.0663
