-127.21 -175.07 159.89
-127.166 -172.54 159.795
-124.66 -172.935 159.91
-126.587 -169.79 159.967
-120.983 -111.166 159.742
-118.683 -111.098 159.786
-126.684 -106.054 159.686
-122.213 -107.39 159.064
-118.981 -107.422 159.439
-131.936 -101.415 159.463
-127.258 -102.451 158.708
-122.375 -102.508 158.436
-119.224 -102.949 159.54
-136.681 -96.5645 159.245
-132.851 -97.6212 158.52
-122.714 -97.3936 158.48
-119.86 -98.838 159.7
-123.101 -92.7254 159.08
-142.224 -87.1922 158.445
-127.732 -87.7121 158.726
-123.875 -88.996 159.945
-145.397 -81.2673 159.603
-142.43 -82.7255 158.042
-137.682 -82.548 157.319
-132.869 -82.9037 158.45
-129.36 -83.7325 159.63
-145.477 -77.0843 159.53
-142.655 -77.54 158.467
-137.678 -77.4501 158.695
-133.997 -78.3913 159.613
-142.163 -73.7883 159.588
-139.295 -74.088 159.72
-130.94 -180.605 164.212
-127.498 -181.7 163.628
-122.574 -181.689 163.477
-119.537 -181.097 164.367
-136.388 -176.051 164.272
-132.182 -177.533 162.507
-127.502 -177.692 160.927
-122.456 -177.434 161.4
-118.644 -177.85 163.575
-137.382 -172.555 163.205
-132.456 -172.463 160.84
-129.665 -172.835 160.045
-122.427 -172.627 160.78
-117.951 -172.618 163.493
-137.27 -167.518 163.427
-132.785 -167.704 161.533
-127.631 -167.247 160.695
-122.643 -167.459 161.192
-118.085 -167.379 163.144
-136.295 -164.18 164.447
-132.28 -162.891 163.447
-126.985 -162.76 162.334
-122.423 -162.152 162.109
-130.98 -159.625 164.79
-126.919 -158.236 164.165
-125.45 -152.57 164.717
-109.576 -132.136 164.694
-109.562 -127.045 164.377
-126.34 -121.033 164.76
-122.256 -122.258 164.047
-117.358 -122.397 162.189
-109.28 -122.514 164.446
-130.65 -115.952 164.52
-127.672 -117.552 163.895
-122.477 -117.62 162.616
-117.511 -117.397 161.262
-112.174 -117.454 162.828
-109.6 -117.797 164.49
-131.692 -112.34 163.71
-127.737 -112.843 162.17
-122.588 -113.033 160.839
-117.269 -112.921 160.492
-112.59 -112.51 162.727
-109.75 -112.32 164.93
-135.415 -105.785 164.2
-132.679 -107.405 162.204
-127.713 -108.202 160.674
-124.91 -108.92 160.17
-116.487 -107.553 160.64
-112.728 -107.52 163.183
-136.445 -102.144 162.439
-133.334 -103.539 160.673
-117.198 -102.217 160.97
-113.369 -102.42 163.756
-140.836 -95.9798 163.548
-138.767 -98.0138 161.935
-117.195 -97.5161 161.835
-114.04 -97.7578 164.236
-142.769 -92.4821 162.424
-120.948 -91.8705 160.488
-117.829 -92.3922 162.393
-114.527 -93.7223 164.663
-146.286 -86.9642 162.829
-144.495 -88.7274 161.094
-125.597 -86.3867 160.467
-122.144 -87.4663 161.554
-117.79 -87.7308 163.725
-150.44 -80.955 164.627
-147.909 -82.4616 162.363
-130.68 -80.927 160.09
-126.732 -82.6363 161.331
-122.552 -82.6018 163.371
-119.303 -83.651 164.525
-151.239 -76.9159 164.005
-148.119 -77.44 161.325
-135.32 -75.716 160.14
-132.456 -76.5633 161.02
-127.422 -77.4054 162.849
-123.703 -79.015 164.103
-151.384 -72.3431 163.909
-147.467 -72.4879 161.466
-142.571 -71.5862 160.885
-137.145 -72.2311 161.589
-132.522 -72.3648 163.052
-128.869 -73.5054 164.044
-150.77 -69.4207 164.31
-147.424 -68.1844 163.58
-142.884 -68.1279 163.747
-137.773 -68.9168 163.862
-133.962 -69.4375 164.477
-125.15 -185.095 168.73
-122.687 -185.581 168.537
-118.982 -185.458 169.325
-131.491 -181.11 167.311
-127.623 -183.635 167.52
-122.312 -184.162 166.092
-117.511 -182.659 167.5
-114.715 -181.575 169.56
-140.36 -175.67 169
-137.425 -176.874 167.263
-133.781 -179.157 166.721
-116.231 -177.871 166.138
-114.182 -177.316 168.613
-141.784 -172.726 167.534
-139.46 -174.177 165.333
-115.603 -172.415 165.81
-113.595 -172.206 168.21
-142.064 -167.565 167.509
-139.607 -166.353 165.343
-115.348 -168.018 165.492
-113.081 -167.022 167.685
-140.875 -163.763 168.584
-137.886 -162.181 167.314
-134.128 -160.897 165.603
-109.71 -160.04 169.36
-135.878 -158.975 168.938
-132.515 -157.468 167.299
-128.981 -156.438 165.602
-110.936 -157.721 166.975
-109.023 -156.919 169.03
-131.731 -152.637 168.888
-128.168 -152.667 166.13
-132.066 -147.514 168.68
-128.029 -147.624 165.991
-132.58 -142.486 168.361
-128.023 -142.784 165.888
-133.026 -137.392 168.647
-127.607 -137.693 166.033
-107.982 -137.185 167.216
-132.845 -132.163 168.829
-127.761 -132.444 166.611
-124.157 -131.999 165.416
-107.528 -132.495 167.122
-132.714 -127.42 168.667
-127.714 -127.503 166.645
-123.723 -127.671 165.413
-107.271 -127.573 166.933
-104.96 -125.25 169.97
-128.177 -122.811 165.88
-124.42 -123.903 165.143
-106.964 -122.494 167.096
-104.745 -122.18 169.775
-133.403 -117.648 167.651
-129.36 -119.78 165.34
-107.332 -117.577 166.861
-104.75 -118.343 169.483
-135.027 -110.653 168.413
-134.317 -112.482 167.463
-107.558 -112.547 166.78
-104.285 -112.365 169.375
-135.564 -107.42 168.002
-134.705 -108.61 165.635
-110.15 -106.2 165.27
-107.596 -107.521 166.854
-104.235 -107.022 169.24
-137.54 -102.425 167.631
-110.54 -102.36 165.715
-107.095 -102.754 167.78
-104.465 -102.702 169.513
-140.806 -96.501 167.152
-139.479 -98.6418 168.095
-111.341 -97.3404 166.133
-107.297 -97.5381 168.714
-145.17 -90.033 165.43
-142.85 -92.8697 167.419
-112.195 -92.3014 166.59
-108.569 -92.5945 169.076
-146.831 -87.0384 167.557
-144.562 -89.3255 169.303
-115.748 -86.4112 165.678
-112.554 -87.7116 167.793
-109.51 -89.14 169.62
-151.04 -81.4129 167.585
-149.111 -84.1066 167.305
-116.999 -82.6283 166.652
-113.765 -82.9407 168.994
-152.942 -77.3459 167.515
-121.891 -76.7197 166.564
-118.132 -77.9106 168.707
-155.343 -71.3917 169.338
-153.931 -72.6741 167.096
-127.111 -71.6909 166.764
-122.957 -73.4696 168.335
-119.98 -74.347 169.88
-155.568 -67.377 168.988
-153.001 -66.9985 166.718
-148.052 -65.9952 165.865
-142.113 -65.8305 166.128
-137.454 -66.3806 166.393
-132.077 -67.4647 167.388
-128.494 -68.8773 168.675
-155.2 -64.653 169.9
-151.949 -63.8829 168.623
-147.47 -63.6617 168.519
-142.666 -63.8719 168.275
-137.614 -64.0356 168.948
-133.98 -64.875 169.36
-125.645 -185.444 172.916
-122.558 -186.751 172.539
-117.412 -187.349 172.644
-113.719 -186.27 173.466
-135.45 -180.205 174.37
-132.466 -181.436 172.886
-128.038 -183.939 172.548
-115.07 -184.31 170.77
-112.506 -182.84 172.48
-109.655 -180.74 174.755
-140.766 -175.733 172.067
-137.599 -177.569 172.541
-134.284 -179.652 171.296
-111.787 -177.919 171.874
-109.293 -176.67 174.443
-145.27 -171.043 173.778
-143.728 -173.024 172.126
-111.182 -172.871 171.617
-109.103 -172.022 173.838
-145.293 -168.305 173.822
-144.472 -167.223 171.738
-110.656 -167.37 170.714
-108.742 -166.835 172.858
-142.213 -162.756 172.511
-139.214 -160.544 171.198
-137.039 -157.73 172.532
-134.28 -155.74 170.36
-135.46 -152.702 173.835
-134.07 -152.548 171.178
-135.688 -147.469 173.003
-134.398 -147.934 170.659
-105.684 -147.097 171.666
-104.388 -147.717 173.96
-135.828 -142.558 172.144
-134.94 -143.54 170.13
-105.629 -142.01 171.593
-104.468 -141.985 173.895
-135.457 -137.652 172.458
-134.995 -137.775 170.31
-105.517 -138.11 171.595
-104.424 -137.24 173.717
-135.089 -132.928 172.378
-134.826 -132.112 171.802
-105.26 -134.21 171.37
-104.049 -132.272 173.251
-135.01 -129.87 172.12
-134.732 -127.48 172.442
-105.08 -129.41 170.46
-103.69 -127.473 172.351
-102.487 -122.627 172.472
-134.208 -117.462 172.535
-101.855 -117.7 172.144
-99.6334 -117.321 174.487
-133.909 -112.604 172.063
-101.407 -112.397 171.91
-99.5188 -112.631 174.279
-135.263 -106.153 170.533
-133.58 -107.722 172.562
-101.323 -107.478 171.869
-99.7555 -107.653 174.208
-136.078 -102.255 171.083
-133.663 -102.901 173.621
-101.753 -102.433 172.481
-137.529 -97.4029 172.124
-134.26 -99.18 174.63
-105.42 -96.175 170.45
-103.382 -97.4972 172.583
-141.273 -92.1179 171.593
-138.533 -93.718 173.6
-106.207 -91.9787 171.962
-104.349 -93.5775 173.807
-146.074 -85.9062 171.454
-143.507 -87.8908 172.884
-110.445 -86.0245 170.385
-108.227 -87.8382 172.475
-150.794 -80.9222 172.098
-148.308 -83.1193 172.787
-111.825 -82.3334 172.183
-109.675 -84.5042 173.54
-153.005 -77.7164 172.476
-116.449 -76.5988 172.212
-114.236 -78.8079 172.658
-155.702 -71.6701 172.01
-154.664 -74.2404 172.773
-125.21 -70.116 170.59
-121.961 -71.6563 172.114
-118.9 -73.877 172.838
-156.853 -66.9353 172.134
-130.954 -65.5299 171.637
-127.489 -67.5735 172.474
-124.19 -69.4192 173.525
-156.168 -63.9463 172.532
-152.646 -61.0952 172.683
-147.47 -61.1779 172.279
-142.628 -61.4444 172.383
-137.556 -62.3926 172.712
-133.167 -64.0565 172.803
-151.734 -59.6788 174.692
-134.81 -190.05 179.94
-137.366 -187.747 178.029
-132.883 -186.844 178.396
-127.25 -185.517 177.797
-122.547 -187.431 177.364
-112.488 -187.592 177.549
-109.52 -185.503 178.637
-136.916 -182.492 177.913
-132.592 -183.802 176.151
-128.786 -184.617 176.219
-110.315 -184.25 175.635
-108.374 -182.57 177.816
-140.778 -175.551 177.498
-138.161 -177.979 177.339
-107.059 -177.433 177.457
-145.265 -170.94 176.813
-143.429 -173.307 177.507
-106.471 -172.954 177.171
-104.747 -171.355 179.285
-145.325 -167.789 177.676
-144.99 -165.34 176.22
-105.888 -167.75 176.326
-104.212 -167.368 178.627
-143.583 -162.772 177.465
-140.664 -159.092 178.182
-138.613 -156.854 177.378
-102.455 -147.421 177.539
-136.731 -142.672 177.695
-102.587 -142.307 177.612
-135.618 -137.355 177.199
-134.817 -135.143 178.803
-102.526 -137.548 177.566
-135.03 -134.72 175.93
-134.331 -132.543 177.399
-101.874 -132.704 177.484
-99.701 -130.26 179.79
-133.503 -128.014 177.389
-101.081 -128.167 176.829
-99.3573 -126.584 178.74
-100.42 -124.075 175.7
-98.8307 -122.228 177.756
-98.4402 -117.48 177.432
-131.069 -112.728 177.044
-129.55 -111.66 179.775
-98.7066 -112.276 177.575
-130.857 -107.632 176.284
-129.48 -107.181 178.636
-100.302 -106.288 179.078
-99.4025 -108.124 177.204
-131.104 -101.972 177.005
-129.534 -103.379 178.978
-101.096 -102.356 177.553
-99.913 -104.73 175.73
-135.67 -95.4755 175.405
-132.805 -97.8966 177.549
-102.975 -97.4468 177.331
-136.985 -92.2634 177.598
-134.64 -94.3585 178.887
-105.874 -91.5664 177.734
-104.349 -93.8504 176.545
-142.123 -87.2476 177.238
-139.417 -89.4677 178.09
-107.982 -87.4839 177.384
-147.465 -82.271 177.644
-144.94 -84.747 176.54
-111.412 -82.183 177.497
-109.696 -84.5164 177.306
-151.83 -77.462 177.602
-149.8 -79.617 179.07
-116.142 -76.3256 177.679
-113.865 -78.7736 176.991
-155.436 -70.903 177.217
-154.222 -73.3507 177.69
-121.499 -71.2277 177.54
-118.474 -73.8124 177.416
-157.146 -67.2211 177.447
-130.656 -65.1746 177.898
-127.346 -67.0416 177.5
-124.093 -69.2181 177.842
-152.905 -60.8484 177.659
-147.5 -60.7635 177.427
-142.444 -61.3225 177.275
-137.27 -62.541 177.639
-132.881 -64.0479 177.033
-151.13 -59.799 175.55
-149.425 -59.958 175.065
-134.754 -190.727 182.567
-137.652 -187.644 182.616
-132.935 -187.116 182.629
-127.478 -185.629 182.483
-122.664 -187.059 182.439
-109.354 -185.691 182.394
-136.994 -182.641 182.467
-133.054 -184.462 184.682
-129.3 -184.95 184.61
-107.232 -182.578 182.434
-140.764 -175.707 182.505
-138.353 -178.24 182.441
-105.568 -178.535 182.307
-104.68 -175.908 183.026
-145.555 -171.262 183.081
-143.415 -173.508 182.069
-104.029 -172.577 182.528
-145.876 -167.516 182.699
-102.816 -167.411 182.8
-145.238 -164.672 182.682
-143.771 -162.329 182.332
-141.008 -158.462 182.319
-100.484 -147.769 181.781
-99.8464 -147.384 184.104
-100.562 -142.412 181.274
-99.5831 -142.557 183.854
-135.578 -138.329 182.612
-134.697 -136.003 182.61
-100.45 -137.743 180.878
-99.211 -137.417 183.418
-133.23 -132.54 182.488
-100.07 -134.21 180.61
-98.8196 -132.393 182.771
-98.3325 -127.671 182.396
-98.175 -122.42 182.688
-100.43 -115.52 184.89
-98.6162 -117.394 182.489
-129.068 -112.43 182.416
-100.919 -112.201 183.87
-99.2247 -113.081 181.608
-128.694 -107.659 182.595
-102.035 -107.652 182.585
-130.3 -100.701 182.477
-129.352 -103.269 182.441
-105.578 -101.733 184.208
-103.417 -102.817 181.991
-132.163 -97.362 182.581
-105.771 -97.33 182.607
-104.29 -98.4338 181.066
-136.448 -91.4698 182.465
-134.413 -94.0416 182.599
-107.54 -92.6896 182.815
-141.785 -86.5117 182.652
-138.747 -89.1255 182.497
-110.923 -86.4724 183.174
-108.782 -88.5153 181.601
-146.978 -81.9148 182.372
-144.176 -84.45 182.628
-115.672 -80.8953 184.138
-112.859 -83.0329 182.291
-151.253 -77.0983 182.098
-149.454 -78.9713 183.326
-120.52 -75.3085 183.92
-117.465 -77.6287 182.681
-114.55 -79.913 181.01
-155.083 -70.507 180.878
-153.164 -72.6817 182.941
-125.698 -70.349 183.545
-122.61 -72.3725 182.54
-119.013 -74.495 180.757
-155.661 -67.3303 181.229
-153.721 -67.2382 183.507
-135.32 -65.274 184.337
-132.146 -66.0341 182.775
-127.686 -68.3081 182.273
-124.34 -69.721 180.55
-155.493 -63.8026 180.633
-152.424 -63.4897 182.312
-147.818 -62.3524 182.823
-142.721 -62.606 182.574
-137.833 -63.808 182.59
-134.052 -64.5113 180.933
-126.221 -185.292 187.429
-122.578 -186.828 187.413
-112.437 -187.019 187.486
-109.68 -185.52 185.66
-135.42 -180.37 186.357
-132.463 -182.313 187.057
-128.396 -184.356 187.91
-110.448 -184.036 189.17
-108.187 -182.187 187.258
-141.352 -175.809 187.567
-137.566 -178.108 187.478
-134.61 -179.96 189.82
-106.311 -177.718 187.74
-104.79 -175.43 185.66
-145.741 -171.928 187.39
-143.839 -174.342 187.363
-105.462 -173.413 189.243
-104.298 -172.091 187.204
-146.296 -167.642 187.64
-103.193 -167.462 187.583
-145.419 -164.181 187.273
-143.755 -161.757 187.722
-141.049 -158.379 187.298
-99.8773 -150.888 186.75
-100.232 -147.972 189.55
-99.5475 -147.503 187.284
-100.232 -142.702 189.768
-99.1908 -142.341 187.456
-135.513 -138.384 187.897
-134.693 -135.995 187.603
-100.188 -137.938 189.63
-98.9017 -137.572 187.329
-133.161 -132.315 187.501
-100.507 -132.258 189.402
-98.7606 -132.752 187.037
-101.108 -127.271 189.153
-98.787 -127.814 186.728
-101.908 -122.407 188.476
-99.1734 -123.063 185.969
-130.308 -117.943 188.661
-129.726 -116.917 186.33
-102.515 -117.418 187.416
-99.504 -119.54 185.2
-130.2 -112.173 189.245
-129.408 -112.339 186.832
-106.008 -112.033 188.769
-103.176 -112.9 186.31
-130.178 -107.064 188.97
-129.43 -107.41 186.619
-106.853 -107.141 187.696
-104.407 -108.547 185.463
-130.622 -102.071 187.812
-129.705 -103.872 185.855
-107.81 -102.639 187.627
-132.406 -97.4088 187.581
-110.253 -96.105 189.053
-108.628 -97.8279 187.253
-136.198 -91.4674 187.513
-134.431 -93.9461 188.044
-110.984 -92.414 188.058
-109.164 -93.3544 185.912
-140.885 -86.1711 187.208
-138.585 -88.4864 187.389
-115.68 -85.4425 189.805
-112.932 -87.605 187.43
-146.048 -81.2669 186.597
-143.422 -82.8362 188.175
-116.932 -82.3573 187.725
-114.207 -84.139 185.695
-150.507 -75.8067 185.663
-147.518 -77.6498 187.724
-144.25 -79.136 189.91
-122.107 -76.8466 188.367
-119.185 -78.6738 186.395
-150.995 -72.5919 186.103
-147.632 -72.3023 188.523
-144.327 -71.0643 189.943
-130.61 -70.7255 189.85
-126.996 -71.9787 187.95
-123.695 -73.907 186.287
-151.274 -68.1096 185.796
-147.633 -67.3053 187.562
-142.69 -67.0957 188.698
-137.438 -66.6069 187.751
-132.641 -68.1741 187.648
-128.883 -69.3452 186.102
-147.192 -64.2909 185.754
-142.921 -64.0237 185.914
-139.37 -64.801 185.985
-125.749 -185.235 193.049
-122.532 -186.086 192.707
-117.942 -186.675 192.133
-113.774 -185.986 190.794
-135.11 -180.04 193.7
-132.415 -181.747 192.433
-128.213 -184.109 192.113
-116.347 -183.936 194.172
-112.432 -182.565 192.264
-109.537 -181.14 190.473
-141.462 -175.819 192.458
-137.516 -178.293 192.495
-134.845 -179.73 190.68
-111.483 -178.035 193.792
-108.548 -176.987 191.506
-145.658 -171.118 191.73
-144.027 -173.388 192.893
-110.85 -174.78 194.33
-107.413 -172.54 191.967
-104.92 -170.28 190.08
-145.773 -167.612 192.182
-144.84 -165.825 194.375
-106.929 -167.71 192.795
-104.419 -166.886 190.609
-145.257 -164.475 190.872
-143.615 -162.291 192.609
-106.822 -162.329 193.741
-103.868 -162.115 191.298
-140.84 -158.701 192.882
-139.033 -156.215 192.352
-106.057 -157.485 193.713
-106.278 -152.861 194.067
-102.664 -152.747 191.473
-106.09 -147.318 193.802
-102.418 -147.652 191.284
-136.12 -142.467 192.404
-106.427 -142.648 193.943
-102.47 -142.474 191.188
-135.609 -137.774 192.727
-134.715 -135.46 191.13
-106.467 -137.256 194.026
-102.762 -137.527 191.264
-135.157 -134.413 194.357
-134.139 -132.242 192.306
-106.615 -132.501 193.896
-103.042 -132.664 191.259
-106.744 -127.26 193.686
-103.556 -127.341 191.069
-106.711 -122.619 193.268
-104.139 -123.14 190.65
-130.956 -117.645 192.283
-107.062 -117.498 192.295
-130.39 -112.734 192.301
-129.755 -110.945 194.65
-110.01 -111.49 194.63
-108.522 -112.756 192.489
-130.299 -107.213 191.516
-129.76 -107.08 193.959
-110.572 -107.386 194.26
-109.155 -107.915 191.502
-130.541 -102.397 192.11
-129.853 -102.903 194.35
-111.133 -101.991 193.232
-109.692 -102.698 190.634
-131.759 -97.2465 192.539
-111.901 -97.5181 192.638
-135.53 -90.6807 190.985
-133.303 -92.4974 192.986
-115.503 -91.197 194.02
-113.321 -92.9809 192.256
-136.977 -87.1459 191.944
-133.864 -88.1194 194.296
-120.22 -85.036 194.63
-116.953 -87.3098 192.971
-114.382 -88.9535 191.005
-141.063 -82.1931 191.087
-137.577 -82.5303 193.386
-134.078 -81.9332 194.77
-125.8 -80.3315 194.715
-121.958 -81.9412 193.58
-118.658 -83.3003 191.432
-142.003 -77.5034 191.391
-137.676 -77.2698 193.181
-132.589 -77.2646 194.087
-127.265 -77.1788 193.199
-123.525 -78.4187 191.987
-145.1 -74.328 190
-142.196 -72.5294 190.748
-137.519 -72.2078 191.698
-132.733 -72.7008 191.945
-128.401 -73.579 191.136
-141.61 -69.435 190.2
-137.292 -69.34 190.312
-133.885 -69.681 190.2
-125.5 -185.15 196.06
-123.685 -185.365 195.525
-135.382 -180.208 197.024
-132.544 -182.078 197.412
-127.785 -184.088 197.833
-122.238 -183.498 197.991
-118.025 -182.23 196.338
-114.93 -180.955 195.11
-140.695 -175.683 196.335
-137.629 -177.927 197.8
-117.22 -177.841 198.135
-113.873 -177.281 195.762
-142.571 -172.517 197.502
-139.59 -174.73 199.91
-116.068 -173.034 199.021
-112.802 -172.445 196.482
-145.01 -168.51 195.25
-143.606 -167.44 197.465
-112.847 -167.733 197.852
-109.445 -166.73 195.205
-142.133 -162.629 197.308
-111.828 -162.624 197.995
-109.042 -162.138 195.72
-140.358 -159.29 196.708
-138.535 -156.975 197.623
-111.275 -157.786 198.368
-108.677 -157.32 196.003
-111.253 -152.186 198.811
-108.727 -152.1 196.25
-135.988 -147.32 197.08
-134.93 -147.27 199.775
-111.17 -147.337 198.549
-108.978 -147.382 196.079
-135.833 -142.127 197.071
-134.775 -142.012 199.343
-111.067 -142.888 198.289
-109.076 -142.374 196.092
-135.583 -137.95 196.859
-134.276 -136.89 199.094
-110.952 -137.68 198.71
-108.848 -137.959 196.167
-135.08 -133.925 195.665
-133.784 -132.643 197.82
-110.863 -132.446 198.779
-108.954 -132.612 196.248
-132.524 -127.676 197.093
-110.783 -127.814 198.759
-109.047 -127.349 196.442
-110.952 -122.798 199.146
-109.053 -122.451 196.527
-130.346 -117.698 195.76
-129.038 -117.301 198.467
-111.175 -117.331 198.374
-109.52 -117.963 196.203
-128.476 -112.395 197.867
-111.44 -112.37 197.377
-109.92 -113.9 195.44
-127.699 -107.44 197.751
-124.77 -105.64 199.83
-112.639 -107.36 197.643
-127.707 -102.424 197.434
-124.036 -102.223 199.666
-115.844 -101.259 199.286
-113.452 -102.537 196.962
-130.509 -96.9214 195.449
-127.963 -97.7748 197.515
-122.546 -97.2208 199.394
-117.419 -97.1949 198.64
-114.202 -98.0786 196.196
-130.913 -92.5147 195.807
-127.725 -92.2081 197.369
-122.37 -92.3887 198.479
-117.779 -92.6732 196.973
-114.99 -94.426 195.34
-131.695 -87.4161 195.546
-127.274 -87.5009 196.866
-122.434 -87.4231 196.819
-119.03 -88.1577 195.671
-131.783 -82.5704 195.349
-127.587 -82.5978 195.797
-123.473 -83.8026 195.622
-131.185 -79.681 195.025
-132.038 -181.037 201.331
-127.963 -181.864 201.78
-123.38 -181.359 201.048
-136.413 -176.874 201.645
-132.82 -178.073 203.47
-127.179 -178.223 204.074
-122.528 -177.65 202.398
-119.27 -176.37 200.667
-140.613 -171.168 200.935
-137.63 -172.785 203.095
-134.27 -174.86 204.9
-121.892 -172.719 203.602
-118.449 -172.136 201.495
-140.978 -167.811 201.099
-138.408 -167.387 203.546
-121.021 -168.035 204.259
-140.49 -163.405 200.605
-137.829 -162.274 202.921
-120.29 -164.21 204.87
-117.696 -162.577 203.335
-114.49 -162.91 200.475
-136.517 -157.655 202.04
-116.664 -157.473 203.505
-113.996 -157.53 201.034
-116.118 -152.384 203.913
-113.607 -152.454 201.32
-132.868 -147.616 202.494
-129.98 -145.41 204.67
-115.741 -147.747 204.113
-113.7 -147.648 201.631
-132.414 -142.706 202.247
-129.298 -142.12 204.747
-115.488 -142.349 204.316
-113.976 -142.524 202.019
-131.745 -137.846 202.309
-128.84 -137.217 204.544
-115.361 -137.341 204.551
-113.583 -137.526 202.029
-131.263 -132.706 201.692
-128.235 -132.274 204.003
-115.31 -131.85 204.683
-113.48 -132.504 202.261
-130.442 -127.942 200.94
-127.844 -127.663 202.998
-122.965 -126.748 204.65
-113.447 -127.45 202.246
-126.915 -117.783 200.988
-126.031 -112.6 200.488
-122.319 -112.551 201.889
-117.223 -112.263 202.469
-114.124 -112.59 201.01
-125.335 -109.12 200.188
-122.363 -107.697 200.958
-117.32 -107.446 201.474
-114.692 -108.246 200.6
-121.567 -102.63 200.423
-117.995 -102.669 200.656
-120.585 -99.5715 200.185
-119.18 -99.347 200.155
-131.428 -175.96 205.268
-128.198 -176.123 205.242
-135.475 -171.265 205.335
-132.473 -172.601 206.089
-127.256 -172.677 205.986
-124.373 -171.48 205.267
-135.886 -167.919 205.44
-132.392 -167.4 207.007
-127.617 -167.586 206.997
-123.526 -167.348 205.703
-135.457 -163.393 205.237
-132.16 -162.525 206.796
-122.398 -162.469 206.3
-119.69 -161.18 205.26
-118.939 -156.987 205.625
-118.497 -152.134 206.083
-127.253 -147.281 206.704
-117.991 -147.484 206.177
-126.662 -142.561 206.285
-122.215 -142.755 207.328
-117.601 -142.251 206.166
-126.561 -137.546 205.717
-122.344 -137.79 206.798
-117.703 -137.393 206.097
-125.869 -133.591 205.344
-122.411 -132.535 205.928
-117.678 -132.788 205.782
-121.871 -128.638 205.289
-117.978 -128.433 205.309
