-71.628 83.9469 204.894
-69.976 84.599 204.99
-81.1997 89.1037 204.953
-77.236 88.0054 204.674
-73.0235 87.4139 204.703
-81.9967 92.811 204.589
-77.8512 92.1624 204.55
-74.496 90.7803 204.69
-85.071 96.822 204.9
-82.808 96.895 204.701
-79.572 95.9165 204.805
-71.034 -0.36377 209.86
-67.837 -0.379616 209.688
-76.3234 3.85668 209.208
-72.37 2.60871 208.49
-67.3653 2.47283 208.661
-64.2724 3.03929 209.591
-80.342 8.97713 209.837
-77.5773 7.65546 208.816
-72.6447 7.42652 207.446
-67.8281 7.27799 207.771
-63.8412 7.33474 209.453
-80.094 10.895 209.83
-77.4609 12.0115 209.191
-72.4092 12.4171 208.209
-67.4291 12.5531 208.482
-63.8817 12.4004 209.601
-76.0605 15.281 209.895
-72.0709 16.0297 209.473
-67.3631 17.4524 209.508
-63.571 18.0951 209.766
-65.3563 22.1885 209.922
-62.5458 22.6197 209.617
-59.263 24.14 209.685
-65.096 28.739 209.86
-62.3836 27.3374 209.208
-58.5905 27.7542 209.351
-62.3191 32.4428 209.113
-58.0872 32.5107 209
-61.679 37.2863 209.183
-58.0812 37.2796 208.898
-61.0931 42.4123 209.331
-58.2948 42.6235 209.07
-60.912 47.1508 209.642
-58.4479 47.4034 209.439
-60.4951 52.4396 209.789
-58.4592 52.2451 209.661
-61.5102 57.9114 209.62
-58.6329 57.4326 209.593
-66.5676 64.0482 209.598
-62.4365 62.7213 208.807
-58.5793 62.5223 209.241
-72.2475 68.0527 209.555
-58.4845 67.6439 208.987
-76.5527 73.2844 209.169
-72.5492 72.3887 208.227
-80.3826 78.3954 209.354
-77.6623 77.3997 208.139
-72.4758 77.6159 206.518
-82.1803 82.7875 208.29
-77.6551 82.5505 206.224
-72.5314 81.8632 205.348
-67.6379 82.433 205.61
-86.335 87.9429 208.761
-82.9659 87.1603 206.38
-78.7804 86.0541 205.287
-70.6839 88.2506 205.26
-67.3629 87.6186 206.513
-63.3107 87.1866 208.684
-90.386 93.939 209.78
-87.6133 92.5976 207.308
-84.3923 91.4747 205.328
-76.1455 94.2085 205.185
-72.5525 92.774 206.028
-67.6266 92.0218 208.059
-64.5163 91.7152 209.435
-91.1186 97.8944 208.977
-87.6608 97.401 206.29
-82.7285 99.3193 205.065
-77.3097 97.5271 205.896
-72.3577 97.1975 207.918
-68.4689 96.2541 209.494
-91.7839 102.689 208.669
-87.5734 102.517 206.282
-82.3309 102.782 206.107
-77.7356 102.848 207.682
-73.0175 101.763 209.239
-91.865 107.125 209.095
-87.6729 107.616 207.931
-82.869 107.613 208.448
-78.0766 106.228 209.112
-90.824 110.347 209.757
-87.5782 110.338 209.65
-67.2215 -5.08605 214.545
-75.6639 -0.676586 213.541
-72.5267 -2.24183 212.681
-67.4014 -2.9879 212.126
-63.0626 -2.00723 213.074
-81.4965 3.81964 213.366
-77.8416 1.94093 212.122
-74.218 0.458553 210.207
-65.261 0.015188 210.08
-62.1529 1.8823 211.553
-59.4318 2.63281 214.328
-85.6151 8.29539 214.263
-82.8646 7.03647 212.11
-79.5895 5.46115 210.23
-61.4532 7.48586 211.324
-59.1728 7.68162 213.676
-85.7014 11.9826 214.351
-82.7833 12.696 212.122
-79.4076 14.0298 210.51
-61.5209 12.7278 210.885
-58.5045 12.613 213.627
-81.9485 16.3791 213.561
-77.5924 17.7847 212.002
-73.0122 18.3163 210.728
-68.59 19.48 210.24
-61.1431 17.2254 210.46
-58.0553 17.5298 212.705
-76.439 21.3956 213.969
-72.4692 22.4982 212.577
-67.738 22.3547 210.714
-60.045 20.806 210.1
-57.7901 22.129 211.368
-54.4747 23.447 214.47
-72.3726 27.1642 213.828
-67.6107 27.4416 211.237
-56.3193 27.132 211.23
-54.0279 27.9373 213.59
-72.2109 32.5125 213.698
-67.5068 32.2543 211.35
-64.987 33.671 210.06
-55.6006 32.1882 210.752
-53.2425 32.7551 213.425
-67.8189 37.2629 211.832
-64.4142 37.3865 210.272
-55.5343 37.5554 210.426
-53.1954 37.6419 213.202
-67.6751 42.5961 212.222
-64.102 42.4595 210.677
-55.7365 42.9314 210.506
-53.2196 42.5062 212.995
-67.8546 47.538 212.793
-62.9727 48.1596 210.725
-55.8553 47.7497 210.529
-52.6538 47.601 213.123
-71.9025 52.6124 214.235
-67.3761 52.7368 212.796
-62.9457 52.3839 210.916
-55.9201 52.8479 210.488
-52.5635 52.482 212.807
-75.8305 58.6765 214.745
-72.5558 57.4946 213.554
-67.2991 57.5996 211.996
-63.6769 57.1519 210.67
-55.9832 57.4317 210.373
-52.605 57.4967 212.682
-76.4102 62.7436 214.028
-72.6663 62.4264 211.866
-67.5401 62.0723 210.665
-64.696 60.3645 210.295
-55.772 62.319 210.398
-52.8388 62.4373 212.742
-76.9805 67.8227 212.756
-73.256 66.0848 210.597
-55.8364 67.3775 210.574
-52.665 67.5979 213.262
-80.1115 74.7775 213.725
-78.3464 72.2751 212.184
-52.6688 72.6058 213.551
-81.4398 77.85 212.629
-79.4865 75.2985 210.875
-53.355 77.2258 213.809
-85.3267 84.4809 212.781
-83.777 82.0171 212.322
-60.329 83.314 210.105
-57.3749 82.3957 212.118
-53.76 82.5716 214.594
-87.2388 87.5118 212.544
-61.0023 88.1623 210.495
-57.5587 87.3459 212.965
-53.901 85.434 214.99
-91.1408 93.6812 212.421
-89.3479 90.9161 212.153
-65.956 94.961 210.11
-62.0345 92.8122 211.213
-58.5265 92.0456 213.511
-95.3066 99.3944 214.094
-93.2607 97.1693 212.383
-66.6541 98.1357 211.011
-62.4563 97.1401 212.931
-59.3917 95.7983 214.39
-96.0332 102.834 213.133
-94.3279 101.941 210.972
-71.2375 103.07 210.516
-67.47 102.748 212.586
-63.9746 101.33 214.163
-96.9159 107.663 213.167
-94.1501 108.12 210.723
-81.467 109.475 210.095
-72.5457 107.601 212.521
-69.0078 106.328 213.902
-96.6636 112.555 213.885
-92.6022 112.764 212.271
-87.7545 113.057 212.287
-95.413 115.2 214.89
-91.1445 115.285 214.82
-87.9775 115.268 214.702
-67.4404 -5.70541 217.599
-62.8163 -6.32592 218.195
-58.955 -5.59613 219.26
-76.0463 -0.779855 218.107
-72.3792 -3.34096 217.559
-69.69 -4.8625 217.147
-61.394 -3.69649 216.009
-58.0945 -2.52778 218.121
-85.303 4.61595 219.33
-82.3717 3.30897 217.72
-78.4297 0.967024 217.235
-57.0152 2.33815 217.62
-87.1496 7.36869 217.703
-84.6295 5.063 215.575
-56.5091 7.48633 217.091
-54.474 8.20416 219.616
-87.6216 12.4103 217.547
-56.0633 12.578 216.33
-54.0541 13.0781 218.72
-86.2411 16.2498 218.371
-83.2103 18.481 217.178
-55.5043 15.4453 216.17
-53.3063 17.1798 218.284
-81.1364 21.128 218.508
-78.395 22.9641 217.015
-74.8145 24.8275 215.05
-52.7906 22.2992 217.028
-77.1565 27.4352 217.914
-74.6164 27.8986 215.672
-51.5342 27.1444 217.036
-49.614 28.8583 219.46
-50.9357 32.8078 216.824
-49.4865 32.9027 219.283
-50.9915 37.6508 216.445
-49.354 37.706 219.39
-50.8741 43.2709 216.183
-49.3805 41.9323 219.123
-50.6538 47.2623 215.672
-49.1603 47.5161 218.373
-73.9704 52.0054 215.236
-50.3196 52.4944 215.57
-48.5697 52.8567 218.154
-74.908 55.628 215.1
-50.321 55.741 215.34
-48.3481 57.7267 217.61
-50.2837 62.353 215.343
-47.5776 62.3761 217.905
-78.552 67.5032 217.366
-50.033 65.542 215.5
-47.193 67.5315 217.717
-44.6805 69.0335 219.8
-80.0855 74.6255 216.4
-78.8942 72.3831 217.572
-50.018 72.042 215.37
-46.6492 72.7178 217.941
-44.7887 72.0187 219.692
-81.1291 78.0314 216.77
-79.2654 76.748 218.92
-50.764 77.377 215.432
-47.4063 77.5281 217.932
-83.0552 82.4923 217.339
-51.3638 82.7907 216.162
-48.3353 82.2887 218.396
-86.2001 87.7034 217.096
-84.3563 86.0032 218.416
-51.8165 87.8078 217.36
-49.23 86.76 219.48
-90.8937 93.9049 216.858
-88.5452 91.8557 218.059
-55.983 92.628 215.792
-53.2358 92.245 218.17
-95.5922 99.4193 216.893
-93.5632 97.2766 217.83
-57.104 97.6068 217.517
-54.2533 95.6673 219.37
-97.19 102.606 217.538
-61.882 103.026 217.149
-58.8053 101.235 218.655
-100.18 109.803 218.923
-98.852 107.314 217.13
-70.7405 109.37 215.44
-67.3243 108.065 217.242
-63.885 106.209 218.328
-100.563 112.809 218.765
-99.1208 113.214 216.281
-72.4455 112.206 217.687
-69.3002 110.54 218.916
-97.5497 116.536 217.665
-92.6181 117.323 217.285
-87.7382 117.5 217.485
-80.7784 -8.59046 224.796
-78.0613 -6.08202 224.761
-70.8616 -5.4076 223.793
-67.5829 -6.74874 222.283
-54.091 -5.5536 224.585
-80.2802 -1.27939 224.346
-77.7684 -2.45951 222.749
-72.9119 -4.10904 222.603
-55.8553 -3.39948 220.75
-53.6215 -2.42968 223.01
-85.3142 4.78492 223.15
-82.3629 2.65078 222.641
-79.2578 0.617317 220.533
-55.153 1.4515 220.09
-52.5729 2.49268 222.792
-88.1172 7.323 222.503
-51.8434 7.26872 222.813
-49.639 9.7135 224.82
-51.6171 12.6754 221.628
-49.2626 12.972 224.227
-87.2613 16.9244 222.603
-84.5506 19.4348 221.668
-50.9162 17.5617 220.997
-48.7344 17.5565 223.455
-82.0614 22.3741 222.651
-79.6855 24.113 220.425
-50.083 21.244 220.89
-48.1443 22.4925 222.976
-80.4638 26.6523 224.092
-79.4342 27.5625 221.769
-47.678 27.4492 222.599
-47.7831 32.3843 222.329
-47.7618 37.9064 222.583
-47.6267 42.6686 222.697
-47.025 47.3665 222.787
-46.5161 51.8728 221.86
-44.58 52.8 224.465
-45.723 57.0787 220.836
-77.1649 62.5379 222.171
-45.29 61.224 220.215
-43.2671 62.6116 222.569
-76.1652 67.506 222.329
-74.607 68.803 224.54
-43.3247 67.5412 222.246
-76.1316 72.3899 221.849
-74.4187 72.5537 224.203
-43.6949 72.4689 222.139
-76.7943 77.6148 222.121
-74.6344 77.1841 224.419
-45.3694 78.851 221.114
-44.4235 77.0666 222.48
-80.6796 83.0888 220.754
-77.8296 82.2035 223.323
-46.4641 82.5214 222.277
-85.497 89.868 220.55
-82.4132 87.554 222.411
-79.5692 85.7777 224.155
-50.1215 89.871 222.55
-48.6737 87.3041 222.383
-86.8679 92.7461 222.357
-84.1776 90.683 223.93
-51.6069 92.3538 222.237
-95.087 99.965 220.66
-92.2789 97.7319 221.994
-89.272 95.26 222.713
-55.8284 98.8781 222.223
-54.1221 96.5389 222.684
-96.5201 102.672 222.306
-94.5505 100.635 223.925
-60.3913 104.276 222.216
-58.2141 101.989 222.665
-100.26 109.93 220.68
-98.7729 107.257 222.446
-66.0337 109.342 222.49
-62.9235 106.797 222.716
-101.221 113.131 222.548
-99.845 110.06 223.735
-72.1073 113.494 222.259
-68.474 111.082 222.402
-92.3425 119.533 222.309
-74.6215 115.155 223.065
-94.0633 120.168 222.532
-79.2623 -11.0816 227.911
-82.3411 -7.3842 227.265
-77.3351 -7.81056 227.139
-72.6069 -5.55877 227.571
-67.5375 -6.6974 227.568
-53.8237 -6.17995 227.547
-81.504 -2.48478 227.336
-72.46 -4.9213 225.26
-51.4444 -2.69116 227.628
-49.987 -0.38901 228.9
-85.184 4.9328 228.05
-82.93 2.53483 227.469
-50.4345 2.20443 225.826
-49.1741 2.93466 228.671
-87.4549 7.19943 227.602
-50.047 5.7434 225.35
-48.5867 7.51552 227.542
-89.3116 12.3887 227.484
-47.5092 12.4352 227.571
-87.7158 17.2348 227.366
-46.3946 17.4454 227.567
-85.39 20.6108 228.312
-45.836 22.0967 227.133
-44.8433 23.5713 229.38
-81.6591 27.2927 227.394
-45.5949 27.2398 226.3
-44.5985 27.6102 228.825
-45.6846 33.0052 226.315
-44.4702 32.2756 228.866
-45.8775 37.9478 226.183
-44.4288 37.6253 228.798
-45.8403 42.3426 226.097
-44.1828 42.6251 228.595
-45.4386 46.9326 225.692
-43.6675 47.8863 228.023
-75.4708 61.8556 226.028
-42.7804 67.5237 227.693
-45.678 73.6654 229.32
-43.8468 71.9424 227.099
-46.3182 77.8029 227.87
-44.7023 76.6327 225.653
-76.3704 82.7733 227.17
-74.8205 80.507 227.985
-48.0547 82.7798 227.498
-81.0336 88.9424 227.399
-79.045 86.6305 227.437
-50.77 88.3491 228.366
-49.4089 86.596 226.886
-86.298 93.6493 227.167
-83.3433 91.1069 227.431
-52.562 92.4303 227.63
-91.6488 98.4281 227.226
-88.9559 96.0059 227.53
-56.2521 97.7281 227.909
-54.2958 95.9516 226.55
-96.0074 103.55 227.377
-94.2239 101.246 227.686
-61.2065 103.801 228.125
-58.7696 101.464 227.069
-98.2687 107.819 227.521
-66.2616 108.748 227.839
-63.2689 106.478 227.028
-100.768 113.026 226.456
-99.3651 112.029 228.498
-75.9153 114.483 228.987
-72.4993 113.157 227.64
-68.6194 110.974 226.902
-97.7169 117.428 227.756
-92.3387 118.723 227.569
-87.4972 118.377 227.271
-77.9516 115.886 227.302
-81.3676 -7.89018 230.865
-77.8872 -7.16254 231.37
-71.5509 -5.32866 231.919
-67.4338 -6.49702 232.634
-54.0587 -6.05448 232.636
-80.5597 -2.58673 230.739
-77.4749 -2.77852 233.034
-73.3961 -4.36479 233.588
-51.5106 -2.62513 232.594
-49.845 -0.28915 230.08
-85.6861 4.66824 233.073
-82.4901 2.48921 232.255
-79.684 0.3749 234.82
-50.21 1.21328 234.645
-49.1635 2.55105 232.29
-90.1086 9.57166 233.034
-88.4131 6.93964 232.418
-47.841 7.45765 232.227
-90.234 11.8771 232.976
-89.7473 13.8477 231.451
-46.6016 12.5621 232.534
-88.1107 17.3494 232.516
-45.5264 17.6375 232.51
-85.5963 20.7098 232.935
-45.0285 20.4605 232.035
-44.6601 22.7767 232.797
-44.0508 27.3517 232.609
-80.9637 32.1015 232.809
-43.5832 32.334 232.587
-43.1418 37.5828 232.681
-42.6185 42.5851 232.911
-45.967 63.319 234.317
-43.4215 62.5451 231.864
-46.6534 67.8995 233.146
-44.0951 66.7995 231.116
-50.4677 74.0723 234.373
-47.8367 72.3356 232.217
-44.973 70.606 230.18
-73.7427 77.446 232.406
-50.6047 77.9112 233.48
-48.7296 77.0553 231.285
-76.1856 82.7972 232.604
-74.7207 80.4967 231.69
-51.5887 82.4905 233.279
-49.261 80.928 230.455
-80.6682 89.0973 232.407
-78.6641 86.4674 232.58
-55.082 89.478 234.7
-52.6083 87.3663 232.345
-86.0295 94.2933 232.395
-83.0752 91.7024 232.906
-56.2045 93.1391 233.336
-53.934 91.5375 231.365
-90.941 99.0109 232.361
-88.4193 96.5473 232.629
-61.29 99.3202 233.904
-58.4468 97.2074 232.273
-95.4753 103.857 230.76
-93.3117 102.356 232.806
-66.105 104.43 234.31
-62.5867 102.254 232.159
-59.636 100.61 230.13
-96.3568 107.586 231.805
-94.3363 107.293 234.075
-70.6401 109.023 233.691
-67.6422 107.095 232.497
-64.36 105.71 230
-96.9667 112.553 231.699
-93.1214 113.086 234.176
-87.6017 114.865 234.723
-81.5521 114.398 234.199
-77.3027 113.583 232.65
-72.8733 111.333 232.411
-69.427 110.01 230.42
-96.107 115.75 230.82
-92.2836 116.494 231.903
-87.561 116.728 232.307
-82.8265 115.886 231.863
-79.945 115.5 230.66
-70.125 -5.0013 239.71
-67.458 -6.07903 237.495
-57.8595 -6.81431 237.146
-54.724 -5.5233 235.67
-76.9151 -1.14677 237.264
-72.6172 -3.75893 237.462
-56.189 -3.54803 239.05
-53.3795 -2.26686 236.882
-85.881 4.5211 237.283
-82.3054 2.49228 237.259
-79.1464 0.458865 237.51
-51.728 2.26954 237.799
-49.587 4.01368 235.597
-90.021 9.8314 237.79
-88.7069 7.08336 237.346
-50.971 6.89566 239.051
-48.9625 7.91787 236.716
-90.2092 11.455 236.442
-89.7747 13.4407 238.216
-50.4785 10.7845 239.795
-48.1432 12.6186 237.485
-88.1903 17.2717 237.461
-46.9903 17.6372 237.61
-85.607 20.7083 237.137
-83.4136 23.3448 237.721
-46.2659 22.206 238.099
-44.7137 23.5066 236.083
-81.2657 27.6121 237.483
-46.3551 27.1891 238.925
-44.3009 27.4309 236.652
-80.293 32.0936 237.477
-79.9737 33.8887 238.417
-46.3164 32.5155 238.845
-43.9666 32.3737 236.664
-80.1381 37.1474 235.997
-79.8975 37.8158 238.005
-46.9953 37.3662 239.097
-43.7293 37.744 236.706
-46.7398 42.5258 238.856
-43.5639 42.3172 236.525
-46.9057 47.3758 238.782
-43.5692 47.3938 236.177
-76.1029 52.5798 237.63
-46.9595 52.8284 238.216
-43.8324 52.3346 235.786
-75.4135 56.9513 238.185
-74.6736 58.0024 236.247
-50.075 58.468 239.94
-47.2803 57.4027 237.416
-44.752 56.677 235.455
-75.1345 60.7195 239.198
-74.4027 62.7047 237.365
-50.4999 63.0011 239.031
-47.9677 62.2816 236.553
-51.3703 67.9011 238.199
-49.2378 66.886 236.108
-52.1625 72.5149 237.446
-75.078 79.7565 237.035
-74.4783 77.1755 237.74
-52.9326 77.5935 237.053
-76.199 82.6802 237.358
-55.274 82.501 239.488
-53.8769 82.3188 237.005
-80.2883 89.3242 236.328
-78.5664 87.3374 237.503
-56.2529 87.667 237.911
-54.4492 86.2678 235.78
-85.047 94.591 235.91
-82.1443 92.5121 237.43
-79.6873 90.8863 239.447
-60.466 93.986 239.21
-58.2118 92.3447 237.312
-87.2096 97.908 236.606
-83.8835 96.8861 239.023
-65.599 99.499 239.86
-62.346 97.5912 237.747
-59.4135 95.5945 235.85
-91.0343 102.705 235.834
-87.6842 102.234 237.827
-83.986 103.02 239.749
-70.431 104.535 239.32
-67.37 102.945 237.995
-63.9677 100.8 236.163
-91.8966 107.531 235.862
-87.5822 107.781 237.78
-82.4941 107.812 239.047
-77.279 108.398 238.903
-72.5837 107.397 237.886
-69.2978 106.253 236.288
-91.1722 111.719 235.672
-87.3978 112.235 236.59
-82.5319 112.172 236.818
-77.4692 111.426 236.492
-74.3837 110.517 235.787
-70.029 -5.0695 242.31
-67.4671 -5.59913 241.725
-62.9081 -5.89311 241.004
-77.2598 -1.44839 242.551
-72.6795 -4.00256 242.863
-66.771 -4.54673 244.383
-62.2403 -3.13346 243.374
-58.3411 -2.20253 241.574
-85.5832 4.54728 241.512
-82.348 2.39124 242.674
-79.7735 0.344175 242.275
-60.3445 0.606485 244.31
-57.3997 2.41932 242.941
-54.133 2.81545 240.606
-87.6671 7.40601 242.437
-56.3695 7.36996 243.699
-53.1243 7.49709 241.151
-88.7912 12.4094 242.383
-55.9626 11.8614 244.606
-52.5361 12.8623 241.935
-86.9233 17.5053 242.49
-52.2618 17.3514 242.559
-49.5413 18.7293 240.45
-85.2727 20.4453 241.487
-83.1946 22.8733 242.796
-52.1735 22.2794 243.171
-49.1631 22.8277 240.631
-81.1843 27.4399 242.162
-52.2186 27.7186 243.434
-49.0756 27.2429 240.746
-80.243 32.3375 242.303
-79.877 33.7012 244.392
-52.2445 32.5942 243.149
-48.9529 32.4608 240.549
-80.0703 37.544 242.132
-79.8379 37.7978 243.971
-52.3546 37.3632 243.146
-49.3404 37.5192 240.69
-80.011 40.233 242.13
-52.0256 42.2744 243.051
-49.1068 42.5208 240.577
-52.0126 47.3311 242.898
-49.4562 47.7852 240.612
-76.9389 52.4715 242.454
-51.7954 52.5599 242.547
-49.49 52.4195 240.275
-75.7185 57.2903 241.758
-74.5787 58.7132 244.173
-51.7516 57.4774 242.352
-49.777 55.8785 240.195
-75.0895 61.12 241.117
-74.3318 62.8002 242.576
-52.7395 62.4002 242.554
-55.1705 68.086 244.675
-53.6782 67.2352 242.318
-55.678 72.9394 243.962
-54.2961 72.0627 241.72
-56.2724 77.6061 242.983
-54.6657 77.7413 240.253
-75.4483 83.4082 241.12
-73.696 82.4396 243.529
-57.3852 82.456 242.527
-76.4786 87.7236 241.611
-73.35 87.7824 244.08
-61.2349 87.7646 244.042
-58.529 86.9923 241.641
-80.3743 94.1123 240.753
-77.2567 92.4642 242.144
-72.605 92.5118 243.994
-67.7279 93.1663 244.431
-62.6785 92.4625 242.454
-59.454 90.625 240.49
-81.6245 97.8862 240.967
-77.4797 97.3918 242.44
-72.4196 97.5481 243.291
-67.447 97.4339 242.454
-64.0289 95.9047 241.43
-82.0292 102.289 240.66
-77.5723 102.483 241.668
-72.7009 102.42 241.499
-68.6906 100.966 241.046
-80.8425 105.58 240.235
-77.3158 105.868 240.395
-76.9216 -1.28276 247.05
-72.2242 -2.90078 247.699
-67.3322 -2.47508 247.387
-63.9269 -1.19119 246.227
-81.7608 3.22554 247.205
-78.6904 1.034 248.694
-66.4127 1.03556 249.477
-62.7053 2.46365 247.207
-59.624 3.7338 245.02
-86.0951 8.17612 246.207
-83.6472 6.7714 248.113
-62.0142 7.17904 248.51
-58.7929 7.66424 245.757
-86.2827 12.2996 246.803
-84.3307 12.1358 249.18
-85.7116 17.0544 245.784
-83.6347 17.7167 248.337
-81.7271 22.4463 247.572
-79.4845 23.8035 249.955
-80.506 26.6536 246.285
-79.2588 27.8228 248.282
-56.7271 27.5986 248.048
-54.4825 27.6845 245.63
-78.5053 32.5293 247.677
-56.7803 32.4074 248.221
-54.6063 32.4575 245.548
-78.1867 37.4194 247.487
-56.7239 37.4562 248.096
-54.4828 37.5982 245.25
-56.3509 42.4001 248.114
-54.4093 41.5127 245.658
-56.5008 47.5278 248.582
-54.3024 47.1339 245.744
-75.8617 51.9963 246.124
-56.3823 52.6816 248.498
-54.3084 52.3984 245.88
-72.7873 57.556 247.886
-69.7165 59.8005 249.82
-56.2837 57.6257 248.444
-54.3267 57.148 246.098
-71.9465 62.2777 247.342
-68.566 63.3301 249.491
-56.6037 62.7405 247.964
-54.5324 61.321 245.628
-71.6132 67.5687 246.49
-67.896 67.3991 248.858
-62.3513 69.1967 249.798
-57.6482 67.6106 247.932
-67.6929 77.5813 247.258
-71.0445 82.0346 245.605
-67.3616 82.5574 246.787
-62.6884 82.5742 246.883
-59.356 81.6492 245.363
-70.9557 86.6747 245.288
-67.1794 87.7354 245.943
-63.4484 87.0616 245.742
-70.215 90.34 245.02
-67.256 90.8767 245.203
-75.506 -0.19596 250.16
-72.6295 -0.560297 250.423
-69.352 -0.4265 250.06
-80.263 4.5253 250.46
-77.2028 3.02519 251.454
-72.4202 2.33833 252.037
-68.2013 2.8585 251.066
-81.2875 7.61923 251.014
-77.6539 7.47221 253.223
-72.364 7.27901 253.723
-67.8385 7.41205 252.259
-63.8588 8.83366 250.432
-81.8117 12.6175 251.449
-77.3345 12.4913 254.177
-72.109 12.1628 254.622
-67.5661 12.4494 253.203
-81.2725 17.3734 251.085
-77.8001 17.3293 253.469
-72.7592 17.6542 254.906
-67.3822 17.2214 254.184
-62.9069 17.5261 251.908
-80.44 20.563 250.58
-77.7085 22.5571 252.111
-73.935 23.0239 254.475
-66.0863 22.3325 254.701
-62.5007 22.629 252.697
-59.5675 22.959 250.185
-76.73 27.2765 251.467
-72.8508 27.9658 254.157
-65.399 26.4585 254.86
-62.3789 27.6628 253.452
-59.322 28.1543 250.78
-75.9539 32.4547 250.92
-72.5574 32.506 253.445
-68.5788 33.891 254.852
-62.3913 32.5534 253.912
-59.2187 32.6761 251.188
-75.6066 37.594 250.541
-72.3554 37.2168 252.796
-67.1702 37.6318 254.771
-59.2129 37.7161 251.604
-75.452 40.741 250.325
-70.668 56.2092 250.223
-67.6314 57.5241 251.072
-62.1331 57.5048 251.952
-58.7542 57.3538 251.114
-66.5478 62.1401 250.443
-61.9752 62.6658 251.063
-59.0052 61.9654 250.588
-62.0542 66.8363 250.301
-59.696 66.404 250.06
-74.2726 13.7024 255.028
-72.4453 17.5052 255.2
-69.4955 19.392 255.275
-71.2922 22.4228 255.381
-68.3604 22.8081 255.357
-70.7766 26.6557 255.257
-67.9576 27.3638 255.381
-70.142 30.477 255.07
-67.2419 32.1654 255.219
-66.354 35.7832 255.12
