-70.8785 -15.0615 19.8845
-68.3319 -15.0443 19.8415
-55.826 -15.0148 19.952
-54.746 -15.021 19.952
-71.8821 -12.7816 19.0826
-67.4947 -12.9205 17.918
-62.4535 -13.0942 17.7278
-57.4694 -12.8848 18.2658
-53.7438 -12.8078 19.3908
-70.945 -8.77539 19.6211
-67.3853 -8.00837 18.8767
-62.4525 -7.67084 18.6014
-57.6183 -8.11693 19.0437
-54.494 -9.10911 19.7569
-70.9958 -2.13676 19.6238
-67.4006 -2.29812 18.9547
-62.51 -2.55027 18.682
-57.5381 -2.20671 19.0834
-54.4209 -2.31842 19.7921
-70.2744 0.354054 19.8552
-67.0833 1.92289 19.4985
-62.5011 2.48647 19.2849
-58.2128 1.62438 19.5375
-63.0768 5.10291 19.9761
-76.7884 -15.4378 23.7615
-72.7342 -15.3997 22.3489
-68.8246 -15.1514 20.7464
-56.0564 -15.1135 21.072
-52.3977 -15.4732 22.6706
-48.4459 -15.6579 23.7971
-77.2515 -12.7152 22.7511
-73.1657 -13.1327 21.6835
-67.2594 -14.5376 22.6847
-62.4347 -14.3327 22.4886
-57.6943 -14.4892 22.7835
-51.7222 -12.8082 21.2858
-48.3869 -12.6836 23.3096
-76.4051 -7.95688 23.693
-72.8471 -7.12991 21.7316
-67.9136 -5.86232 20.6357
-62.5209 -5.51368 20.2401
-56.9918 -6.00022 20.8015
-52.2277 -7.29317 22.2064
-48.9635 -8.32509 23.9814
-77.0921 -2.70882 23.3481
-73.0434 -2.9862 21.1304
-67.9707 -4.57502 20.4486
-62.1712 -4.84204 20.1489
-57.0128 -4.48715 20.6093
-52.2217 -2.82694 21.4409
-48.4609 -2.71543 23.7204
-76.5074 2.25239 23.8293
-72.5896 2.59466 21.5107
-68.6859 3.77863 20.3724
-61.3304 4.8744 20.0332
-56.6446 3.37635 20.4399
-52.4806 2.51827 21.9686
-48.9933 2.10481 24.1865
-75.749 6.94963 24.4855
-72.538 7.50063 22.7918
-67.5595 7.49186 21.1188
-62.4357 7.55672 20.6681
-57.4195 7.51173 21.3429
-52.5536 7.46188 23.2275
-49.6209 6.04991 24.6958
-75.157 10.3695 24.9242
-72.259 12.327 23.8366
-67.6254 12.4969 22.3818
-62.4989 12.4675 21.8943
-57.3877 12.4767 22.5971
-53.212 12.2541 24.0541
-71.2258 17.0376 24.4814
-67.5915 17.4986 23.5559
-62.488 17.4931 23.0913
-57.3657 17.5006 23.8037
-54.1522 16.4996 24.6169
-70.3354 20.4363 24.9235
-67.1801 22.1026 24.5137
-62.4857 22.4834 24.2317
-58.2027 21.845 24.5851
-65.4917 25.2782 24.9276
-62.8984 25.4772 24.863
-59.8525 25.1465 24.9825
-81.3832 -16.2352 28.1823
-77.5634 -16.2796 27.4253
-72.5488 -15.5027 28.0879
-67.425 -15.6378 28.0861
-62.5184 -15.6711 28.1725
-57.51 -15.5497 28.5454
-51.9796 -15.4912 27.8461
-47.3777 -16.4606 27.4793
-44.3912 -16.2292 28.8856
-81.254 -12.6839 27.7874
-79.6002 -11.582 25.5641
-72.2201 -14.8785 25.809
-67.436 -14.83 25.5093
-62.2843 -14.8006 25.6725
-57.3051 -14.6917 25.9939
-53.5953 -14.8048 26.4397
-45.9245 -12.305 26.4197
-44.4691 -12.6771 28.8905
-80.9672 -7.28442 28.8163
-78.6022 -7.18208 26.778
-50.0217 -6.34043 25.0585
-47.0046 -7.28011 27.1802
-44.3937 -6.6057 29.1203
-81.4368 -2.67298 27.9344
-79.4234 -2.62664 25.561
-46.0415 -2.53415 26.1609
-44.2018 -2.66474 28.6709
-81.0271 2.30119 28.5701
-78.9091 2.76862 26.1302
-46.5805 2.62755 26.7588
-44.5539 2.11397 29.2933
-80.5826 7.15238 29.1946
-78.2423 7.63503 26.7647
-50.1812 9.45099 25.1379
-47.2841 7.5847 27.3032
-44.8577 5.8949 29.7833
-80.213 11.2228 29.7262
-77.6744 12.4999 27.4711
-74.4772 13.6846 25.2869
-50.8862 13.0333 25.5484
-47.8451 12.3968 27.8996
-77.2112 17.3498 28.173
-73.546 17.8639 25.7558
-55.055 19.776 25.011
-52.002 17.7589 26.0352
-48.3795 17.3416 28.5491
-76.6104 22.3073 28.7654
-72.5907 22.5763 26.3791
-68.9823 23.8496 25.2833
-56.3276 23.267 25.3822
-52.4721 22.4983 26.8787
-48.9292 22.1792 29.1754
-75.9724 27.2398 29.2767
-72.5441 27.5145 27.3764
-67.6588 27.5394 25.7596
-62.3943 27.9232 25.3767
-57.3506 27.5196 25.997
-52.4539 27.4919 27.9593
-49.5498 26.7358 29.6604
-75.4797 30.9384 29.7007
-72.2032 32.1291 28.5878
-67.5719 32.6638 27.4035
-62.4541 32.7453 26.983
-57.4612 32.6536 27.7079
-52.973 31.7537 28.8081
-71.4842 37.5349 29.4116
-67.5873 37.3989 28.3687
-62.5108 37.3734 27.9553
-57.4252 37.3986 28.7509
-54.175 37.6395 29.6645
-70.8577 41.0363 29.671
-67.4284 41.9287 29.0805
-62.4797 42.1995 28.783
-57.8401 41.7501 29.2604
-54.7303 40.432 29.8929
-82.536 -17.2391 32.6514
-77.641 -16.8829 32.5359
-72.4512 -16.6296 32.4573
-57.4515 -16.7657 32.5329
-52.4831 -16.4138 32.4957
-47.481 -17.1526 32.5433
-83.0815 -12.4016 32.4312
-43.2443 -12.4278 32.4439
-82.4592 -7.45058 32.4126
-45.4146 -7.79055 30.8967
-43.5404 -7.40857 32.6647
-83.7748 -2.49759 32.3985
-83.1548 2.54245 32.3606
-82.5005 7.52201 32.376
-45.1536 9.19044 30.1786
-81.8389 12.4735 32.4504
-79.8989 14.53 30.134
-45.5043 12.924 30.6287
-81.4362 17.3988 32.9239
-79.5327 17.9945 30.5109
-45.9775 17.7055 31.1978
-44.2416 17.3119 33.6354
-81.0914 22.3499 33.4564
-79.03 22.7524 31.0154
-46.5194 22.6373 31.74
-80.7864 27.2739 33.9618
-78.4899 27.6969 31.483
-47.0821 27.6009 32.2331
-44.8111 26.2888 34.7196
-80.4864 30.8239 34.3769
-77.3711 32.5375 32.6754
-73.5852 33.945 30.9451
-55.2276 34.5867 30.1339
-51.8158 33.5406 31.4056
-48.1806 32.1185 33.0641
-77.3976 37.3331 32.9557
-73.7079 37.0665 30.6559
-55.2375 35.3035 30.1093
-51.8781 37.2658 31.0642
-48.3639 37.3566 33.4876
-76.6693 41.6749 33.4993
-72.6844 42.9988 32.2632
-67.7947 44.0263 31.6077
-62.4773 44.1301 31.3244
-56.988 43.8417 31.8143
-52.6537 42.7075 32.5889
-48.9242 41.3249 33.9961
-75.4963 46.2031 34.6192
-72.3903 47.4037 33.2425
-67.4546 47.428 31.5842
-62.3997 47.4756 31.2147
-57.4326 47.5031 31.9512
-52.9046 47.2903 33.6908
-71.5739 52.2346 34.1533
-67.4388 52.5361 32.891
-62.4646 52.5099 32.4227
-57.4838 52.5178 33.2585
-54.0097 51.9684 34.4085
-82.8673 -18.1294 37.5436
-77.7321 -17.7494 37.5329
-52.4462 -17.8269 37.4844
-47.3764 -18.2339 37.5293
-83.6812 -12.2298 37.5285
-42.7579 -12.2156 37.6088
-85.3137 -6.42512 37.8547
-83.4755 -8.36618 37.2028
-85.2554 -2.67875 38.0599
-84.8268 -2.05498 35.7222
-85.1553 2.17656 39.069
-84.6405 2.72186 36.5714
-85.0522 6.07814 39.5844
-84.4273 7.6458 37.2431
-84.1015 12.5353 37.3968
-83.725 17.5163 37.4234
-83.2784 22.5051 37.3576
-82.8844 27.5149 37.4255
-45.1146 29.5596 35.0627
-81.5748 32.37 37.9001
-79.2921 33.4039 35.8997
-46.2428 32.9616 36.6982
-44.2001 32.1518 38.436
-81.547 37.4532 37.6498
-79.7518 38.1274 35.2965
-45.915 37.7058 36.1975
-44.2776 37.3998 38.6844
-80.9302 41.6124 38.6237
-78.0427 43.0176 37.1245
-74.5582 43.7174 35.264
-50.9923 43.6397 35.7934
-47.3602 42.6979 37.6248
-44.6564 40.6463 39.3583
-80.3362 45.827 39.64
-77.8051 47.5976 37.3281
-74.6066 49.3086 35.157
-50.7731 48.4711 35.5273
-47.8914 47.3856 37.784
-77.1757 52.421 37.9379
-73.9381 52.9862 35.5705
-51.7241 52.7877 35.9978
-48.5227 52.3437 38.5161
-49.0535 56.3519 39.1823
-81.5376 -20.3467 43.1832
-79.2073 -20.3534 43.8962
-46.7927 -20.5317 43.2923
-83.2359 -17.9467 42.3116
-77.4646 -18.9008 42.2983
-72.4678 -18.7631 42.4824
-57.4541 -19.2033 42.4625
-52.3907 -19.072 42.5051
-48.2924 -19.2375 41.8281
-43.174 -17.7101 42.5225
-83.1279 -12.3664 42.5907
-43.5211 -12.3071 42.6235
-85.3083 -6.91976 42.5689
-83.8438 -9.21047 42.442
-85.3624 -2.51487 42.5271
-85.311 2.44641 42.5735
-85.2404 7.45181 42.4251
-84.976 9.50224 40.0736
-85.1961 12.3567 42.8923
-84.9053 13.0704 40.5212
-85.186 17.4247 43.4607
-84.8127 17.7294 41.0092
-85.1835 22.4601 43.7619
-84.6805 22.5824 41.2121
-85.1488 26.8998 44.0266
-84.4982 27.9691 42.0234
-83.3687 32.4183 42.3553
-83.8393 37.6403 42.4311
-81.941 42.2825 42.5677
-79.6664 42.4313 40.6692
-45.8798 42.3207 41.6321
-43.945 42.3225 42.8258
-81.5693 47.5055 42.5004
-79.9203 48.8537 40.2935
-45.622 47.9785 40.9717
-44.28 47.3551 43.1564
-81.2707 52.3886 43.0035
-79.6195 52.9518 40.6434
-46.1057 52.6822 41.5533
-44.57 51.9607 43.8433
-77.7868 56.9067 42.2961
-72.389 57.3119 42.6306
-67.4604 57.3686 42.5989
-57.4802 57.3583 42.4666
-52.521 57.3595 42.5508
-47.3884 56.6684 42.5221
-81.034 -20.7251 47.0628
-77.6043 -21.1983 47.6553
-73.0907 -20.6771 49.071
-67.1002 -20.1781 48.907
-62.3412 -20.2855 48.2021
-57.3804 -20.3648 48.1089
-52.148 -20.8644 48.3397
-47.5223 -21.2376 47.3884
-44.6755 -20.3776 45.8658
-81.7024 -17.5619 47.5845
-75.9089 -19.5809 45.7414
-72.306 -19.5408 46.7499
-67.6679 -19.7658 46.4571
-62.7319 -19.8576 45.6983
-57.312 -19.8637 45.4923
-52.5816 -19.7949 45.8727
-45.7278 -17.7091 48.8504
-44.3541 -17.446 46.383
-81.7191 -12.2639 47.5238
-79.8189 -12.5426 49.6596
-45.9211 -12.3998 48.3262
-44.3601 -12.1256 46.813
-85.0292 -6.10499 45.1637
-84.122 -7.77399 47.5302
-42.5572 -7.77234 47.4951
-85.0718 -2.33614 45.4561
-84.4328 -2.54733 47.9767
-85.1258 2.81692 45.7249
-84.587 2.39804 48.2923
-85.1545 7.54831 46.1777
-84.7254 7.37628 48.7334
-85.1818 12.5936 46.7709
-84.8561 12.272 49.1807
-85.2271 17.5785 47.3491
-84.942 16.2602 49.6903
-85.3525 22.5496 47.5764
-85.3635 27.0078 47.3707
-84.1752 29.1191 47.6812
-85.2433 33.4369 48.001
-84.0736 31.4808 47.1245
-85.1871 36.6433 48.032
-84.2458 38.8575 47.3319
-83.3397 42.1883 47.2945
-83.4186 47.5253 47.3786
-42.8193 47.4564 47.4695
-43.2901 52.5655 47.4079
-77.5166 56.1123 47.5657
-72.4896 56.1554 47.5417
-57.4497 56.0734 47.4447
-52.4517 56.1765 47.4455
-47.5023 56.1759 47.5386
-76.9962 -21.4627 52.1087
-72.5018 -22.2036 52.463
-67.4993 -21.8731 52.4383
-62.4157 -21.9069 52.5773
-57.4867 -22.2341 52.2614
-52.3702 -22.1968 52.658
-48.7316 -21.0391 51.4111
-80.2335 -16.4875 50.3129
-77.7741 -17.5479 52.821
-74.8083 -19.5768 54.9152
-50.8506 -17.7321 54.347
-48.1636 -17.3943 51.9583
-81.0901 -11.0863 51.8488
-78.0072 -12.9504 52.7647
-74.6417 -13.8919 54.733
-51.0634 -13.5932 54.0666
-47.6793 -12.3593 52.2513
-44.6242 -10.3646 50.8364
-81.889 -7.49009 52.503
-79.8834 -9.53664 54.8775
-45.8266 -7.78257 53.8838
-44.1435 -7.35571 51.4848
-82.4125 -2.48896 52.5972
-45.3979 -2.93693 54.4332
-43.857 -2.43608 52.05
-82.9411 2.46907 52.6172
-45.109 0.667595 54.8385
-83.4321 7.47069 52.6171
-83.8681 12.4801 52.628
-85.0138 19.5928 50.2406
-84.2499 17.4309 52.6961
-85.1209 23.0891 50.8658
-84.5306 22.2345 53.2322
-85.1802 26.4549 51.1025
-83.8671 27.8259 52.9432
-85.2024 33.1791 51.7812
-84.4132 31.3539 53.0279
-85.1972 36.4341 51.7054
-83.6609 38.4766 52.942
-42.2045 47.5365 52.4329
-77.4136 54.683 53.6313
-72.4339 54.6398 53.2734
-52.4526 54.6682 53.4681
-47.5909 54.7701 53.8704
-77.4778 55.2934 51.3011
-72.4717 55.309 50.8947
-52.1581 55.2913 51.0627
-47.4799 55.3323 51.4262
-71.8749 -21.6275 55.9229
-53.9328 -21.3761 55.5666
-75.2923 -16.4365 55.1613
-72.5137 -17.4577 56.498
-67.5502 -17.4039 58.1355
-62.4763 -17.3711 58.5089
-57.431 -17.44 57.6543
-53.2845 -17.3344 55.9636
-76.9083 -11.3966 56.6646
-72.7122 -12.9348 57.5738
-67.6113 -13.8016 58.3043
-62.355 -13.8876 58.625
-57.1446 -13.5936 57.9854
-52.7278 -12.3192 57.3916
-48.8514 -11.0836 56.0302
-80.1821 -6.17026 55.2033
-77.5812 -7.46296 57.4623
-74.3688 -8.23615 59.6676
-51.533 -7.7833 59.0828
-48.2474 -7.39556 56.6293
-80.4812 -2.18254 55.6017
-77.9341 -2.58332 58.1269
-74.986 -4.7735 59.968
-50.6684 -3.15793 59.5748
-47.7641 -2.3989 57.2427
-80.8571 2.68334 56.1347
-78.6125 2.36578 58.6039
-50.027 0.48318 59.948
-47.1833 2.43259 57.723
-44.849 4.07535 55.2471
-81.2188 7.64501 56.6983
-79.1867 7.21629 59.1355
-46.5611 7.34442 58.2152
-44.5772 7.86233 55.6852
-81.5474 12.6084 57.3011
-79.6738 11.635 59.6354
-45.9867 12.2785 58.7227
-44.2449 12.7201 56.2685
-82.0682 17.4671 57.6199
-45.527 17.0905 59.3189
-43.9485 17.6214 56.9234
-82.8123 22.5361 57.6187
-45.1691 20.8372 59.7486
-43.6562 22.5261 57.5045
-82.265 27.5696 57.5813
-45.6039 27.549 59.0356
-43.905 27.5635 57.1142
-83.7797 32.4014 57.5386
-42.7557 32.3418 57.4937
-82.7271 37.7389 57.5681
-45.276 38.0894 59.2748
-43.5103 37.7595 57.4084
-42.8596 42.6259 57.5033
-42.7126 47.4561 57.4699
-77.499 53.8104 57.4844
-52.4099 53.7931 57.566
-47.4519 53.9051 57.4998
-71.116 -11.2403 60.4946
-67.4371 -11.8302 61.1887
-62.4244 -11.9413 61.4198
-57.6741 -11.5464 60.8437
-54.654 -10.5272 60.1525
-72.1079 -7.30413 60.9356
-67.5977 -7.4996 62.2623
-57.3908 -7.5041 61.7506
-53.8822 -7.04687 60.5545
-75.4587 -1.57293 60.3319
-72.5409 -2.50381 61.7135
-67.6135 -2.50698 63.3298
-62.5133 -2.50972 63.7102
-57.417 -2.48098 62.8826
-53.011 -2.2948 61.158
-76.1094 2.73832 60.8148
-72.5488 2.49003 62.8207
-67.843 2.18666 64.3494
-62.3033 1.59065 64.6343
-57.3041 2.4411 63.9799
-52.5019 2.51507 61.9577
-49.5846 3.57644 60.3194
-76.7825 7.66998 61.4031
-72.7406 7.34361 63.8504
-69.2909 5.69737 64.8348
-56.1326 6.65099 64.6109
-52.4459 7.46401 63.0786
-48.9929 7.86704 60.8236
-80.026 14.957 60.013
-77.4376 12.6284 61.9926
-73.8573 12.0352 64.4108
-51.9158 12.2346 63.9367
-48.3833 12.722 61.4265
-80.3416 18.3365 60.4716
-77.7888 17.435 62.8623
-74.6822 15.7285 64.8446
-50.8462 16.9037 64.4471
-47.905 17.656 62.1497
-80.7661 22.7154 61.002
-78.3415 22.6044 63.5298
-50.2603 23.3236 64.781
-47.3774 22.6168 62.6594
-44.9699 24.3373 60.0941
-80.9359 28.1846 61.3344
-78.28 27.042 62.9614
-50.6402 26.2037 64.4953
-47.4004 27.4111 62.3822
-44.6462 29.5287 60.6461
-81.4489 32.5968 62.1398
-79.5886 32.2542 64.5483
-46.1118 32.3963 63.5937
-44.3351 32.6956 61.0891
-81.2209 37.5414 61.8154
-78.856 36.9416 63.3407
-50.154 36.586 64.086
-46.9162 37.3764 62.8109
-44.4088 37.4129 61.066
-81.5199 42.548 62.494
-79.9145 41.108 64.7714
-45.7615 42.4556 63.8036
-44.3806 42.7875 61.5219
-82.0041 47.4933 62.5964
-45.4861 47.0229 64.3132
-44.2094 47.6216 62.0477
-77.5324 52.6133 62.4412
-72.4731 52.6148 62.4764
-52.4559 52.7688 62.46
-66.1992 4.31944 65.1457
-62.6871 4.06808 65.2257
-59.6595 4.68918 65.095
-70.6102 9.08631 65.1997
-67.4088 7.71127 65.7016
-62.4603 7.48681 65.9986
-58.1207 7.99014 65.5038
-71.6102 12.8613 65.6877
-67.6229 12.4972 66.7877
-54.167 13.324 65.4212
-75.3625 19.0247 65.2414
-72.4925 17.5753 66.4291
-53.1296 17.7692 66.0083
-75.9039 22.7918 65.5848
-72.5631 22.6696 67.2603
-67.5067 22.6378 68.8609
-62.4994 22.6222 69.2632
-57.4242 22.6509 68.4982
-52.5052 22.6557 66.549
-49.8031 23.3809 65.1314
-76.5363 28.443 66.2561
-72.6405 27.3812 67.8392
-67.806 26.3186 68.7943
-62.3419 26.0644 69.0504
-57.0135 26.7716 68.7163
-52.6499 27.6137 67.2421
-49.0317 28.8338 65.8166
-77.166 32.6305 66.8083
-73.138 32.9056 69.1304
-68.2912 34.7999 69.7565
-56.2345 34.1188 69.7038
-52.3444 32.6493 68.6906
-48.5728 32.6723 66.2577
-76.9398 37.5038 66.6737
-73.1118 36.6124 68.5282
-67.8953 35.7272 69.5778
-64.6683 35.5448 69.9723
-56.7951 35.7993 69.4342
-52.122 36.9672 67.887
-48.704 37.8058 66.1507
-80.1656 44.3051 65.1181
-77.6212 42.5367 67.5373
-74.544 41.0763 69.7271
-51.1065 42.2054 69.2232
-48.1862 42.6393 66.7754
-80.4342 47.8549 65.5271
-78.1788 47.4057 68.1058
-50.4025 46.4729 69.7124
-47.7807 47.5968 67.4074
-77.4083 51.2227 67.219
-72.4035 51.503 67.448
-67.4389 51.5189 67.5121
-70.3719 29.4713 70.1162
-67.2906 28.4712 70.5933
-62.5369 28.1791 70.8103
-58.3289 28.6473 70.4002
-70.9838 32.4303 70.3379
-67.4935 32.6204 71.0851
-62.4685 32.8123 71.3407
-57.5966 32.5316 70.7177
-54.7931 32.8901 70.0998
-71.5502 38.1619 70.7779
-67.3203 37.5641 71.6706
-62.4344 37.0896 71.5207
-57.6053 37.6441 71.3119
-54.1143 38.4287 70.4388
-75.184 44.6675 70.127
-72.3318 42.6916 71.2881
-67.5027 42.5292 72.9391
-62.4627 42.5365 73.3507
-57.4299 42.5131 72.4542
-53.4888 42.818 70.859
-75.6069 47.8355 70.4552
-72.5069 47.5509 72.1776
