-150.393 79.684 229.873
-147.269 78.8454 229.677
-142.601 79.5543 229.887
-137.31 77.8717 228.396
-132.622 77.8593 228.746
-129.868 78.2843 229.983
-151.227 82.9783 229.701
-147.545 82.4533 229.056
-142.368 82.2206 228.653
-137.448 82.4295 227.079
-132.669 82.3671 228.686
-128.46 82.8591 229.644
-124.667 84.7206 229.981
-150.903 86.1472 229.644
-147.348 87.2401 229.065
-142.461 87.3361 227.856
-137.413 87.2826 227.037
-132.538 87.4603 228.655
-127.907 87.2262 228.85
-123.95 88.1169 229.661
-145.885 91.1761 229.667
-142.605 92.5363 228.125
-137.388 92.5342 227.969
-132.698 92.2799 228.897
-127.917 92.465 228.785
-124.143 90.9699 229.726
-145.127 95.264 229.97
-142.453 96.191 228.904
-137.879 95.5316 229.35
-131.367 95.2915 229.838
-128.373 95.3222 229.839
-133.893 69.944 234.957
-150.772 74.5257 234.097
-147.525 72.8866 233.974
-142.595 72.9255 233.217
-137.508 72.965 232.914
-132.48 72.5294 232.5
-128.688 73.0608 233.656
-155.654 78.4782 234.414
-152.632 77.6046 232.675
-147.469 76.869 231.161
-142.55 77.1582 230.961
-138.818 76.578 230.775
-131.148 76.586 230.525
-128.052 77.5476 232.82
-123.201 78.7447 234.095
-119.748 79.4445 234.897
-156.145 82.4125 233.771
-153.347 82.1292 231.292
-143.96 80.036 230
-139.86 80.0325 230
-127.097 81.8064 231.071
-122.356 82.2356 232.32
-119.764 83.4039 234.497
-156.296 87.3962 234.038
-152.699 87.7732 231.528
-149.449 89.361 230.46
-127.893 85.0767 230.023
-121.591 87.2315 231.498
-119.596 87.7886 234.021
-155.654 90.7644 234.5
-152.137 92.2835 233.53
-147.982 92.7197 231.45
-144.94 92.01 230
-133.931 94.9837 230.01
-125.633 94.5289 230.29
-122.098 92.4538 232.36
-119.868 90.1017 234.048
-150.324 95.2426 234.835
-146.993 96.8354 233.214
-142.841 98.6579 232.01
-137.595 98.0077 231.638
-132.679 97.7868 231.281
-127.248 97.7587 231.824
-123.442 96.8388 233.571
-142.345 100.576 234.251
-137.162 101.043 234.076
-132.441 101.23 233.79
-128.802 100.783 234.216
-141.043 64.2678 239.324
-138.704 64.4113 239.308
-150.819 69.2204 239.259
-147.593 68.2862 238.076
-142.625 67.407 237.632
-137.413 67.573 237.86
-132.571 67.979 237.81
-128.083 68.6015 238.752
-124.21 69.4055 239.805
-156.384 74.0017 238.669
-152.632 72.371 237.51
-148.279 71.101 236.132
-142.501 70.6855 235.579
-137.502 70.6338 236.021
-132.235 70.1533 235.156
-126.9 71.8053 236.882
-122.75 72.8313 238.461
-119.582 74.5893 239.61
-157.046 77.2341 237.524
-153.714 75.6111 235.513
-126.529 75.9143 235.653
-121.984 76.4463 236.401
-118.516 77.8434 237.965
-158.299 82.6435 237.473
-120.11 81.8251 235.332
-117.929 82.5586 237.241
-160.05 86.21 239.99
-158.549 87.2651 237.529
-117.258 87.6226 237.693
-157.24 92.3125 237.906
-153.442 94.4314 235.625
-120.259 92.9879 235.332
-118.514 92.459 237.672
-155.583 95.538 238.933
-152.238 96.3293 237.897
-148.144 98.191 237.195
-125.469 99.4654 235.274
-121.921 98.0724 237.012
-119.533 95.9749 238.49
-146.421 101.639 238.199
-142.67 102.449 237.342
-137.455 102.789 237.554
-132.41 103.686 237.343
-127.488 102.624 237.483
-123.936 101.166 238.19
-133.136 105.07 239.537
-146.338 63.7169 243.629
-142.37 62.9695 242.659
-137.592 62.9185 242.509
-132.56 63.861 243.377
-129.179 64.6126 244.456
-155.135 69.7576 241.543
-152.858 68.1632 242.625
-147.802 66.3491 242.194
-144.112 65.3026 240.675
-135.345 65.3512 240.714
-131.552 65.6821 241.435
-127.079 66.8796 242.48
-122.597 68.6035 242.771
-119.384 69.3339 243.719
-157.069 72.7225 242.516
-154.478 70.5955 241.47
-120.675 71.7556 240.623
-118.383 72.7686 242.919
-160.396 79.1039 243.304
-158.838 77.0369 242.272
-116.529 77.113 242.096
-114.909 79.4693 244.277
-160.573 82.7005 243.053
-159.575 82.0394 242.19
-115.565 82.6163 242.208
-114.591 82.2677 244.347
-160.407 85.8303 242.026
-159.615 87.8046 242.794
-116.039 87.4912 242.33
-114.486 86.8942 244.527
-160.117 90.2007 243.393
-158.735 92.8971 242.526
-116.834 92.4996 242.461
-114.853 90.4426 244.82
-156.039 95.9543 243.052
-152.489 97.6026 242.75
-148.644 98.8469 241.511
-121.165 98.6347 241.822
-118.479 96.8406 242.647
-150.708 100.441 244.452
-147.631 102.615 242.628
-142.284 103.764 242.414
-137.5 104.032 242.471
-132.745 104.752 241.968
-127.422 103.867 242.408
-122.996 101.69 242.696
-119.75 100.259 244.76
-145.569 105.179 243.932
-144.453 105.244 243.581
-135.251 105.168 242.806
-132.766 105.338 242.911
-129.614 105.154 243.361
-140.341 59.7144 249.829
-139.484 59.668 249.703
-150.429 64.7153 249.691
-146.767 63.1168 247.64
-142.548 61.2072 247.595
-137.398 61.1296 247.409
-132.538 62.3083 247.522
-128.168 63.9077 247.721
-155.307 69.4214 248.154
-153.081 66.8054 247.469
-149.19 65.5511 247.148
-126.294 65.6761 246.338
-122.409 66.5088 247.459
-118.898 68.3219 247.997
-157.252 72.2907 247.532
-154.845 70.1439 245.375
-116.386 72.2063 247.477
-114.776 72.6111 248.227
-160.273 78.9926 247.664
-159.226 76.7745 247.587
-115.239 76.5137 246.052
-114.568 77.5446 247.601
-160.434 82.6163 247.406
-159.807 82.4469 247.95
-115.015 80.11 246.69
-114.103 82.6826 247.392
-160.628 86.9889 247.449
-159.657 87.9528 247.879
-114.022 87.2525 247.691
-160.074 90.1214 247.292
-158.721 92.4724 247.623
-116.562 93.137 247.561
-114.597 90.8535 247.915
-156.44 96.0443 247.528
-152.472 97.9663 247.645
-149.577 99.1696 248.348
-120.911 99.5162 248.351
-118.629 97.2035 247.428
-150.647 100.447 245.805
-148.234 103 247.661
-142.147 104.224 247.524
-137.986 104.263 247.48
-132.393 104.54 247.405
-127.738 103.318 247.668
-123.201 101.646 247.342
-119.611 100.26 245.755
-145.534 105.125 246.919
-143.792 105.137 247.941
-136.271 105.34 247.997
-132.644 105.301 248.161
-129.799 105.23 249.011
-140.529 59.7117 251.204
-139.312 59.7094 251.472
-150.761 64.6287 251.226
-147.527 63.2142 252.366
-142.72 60.9119 252.61
-137.28 61.1639 252.638
-132.562 62.1913 252.65
-127.976 63.9063 252.383
-155.712 69.3638 252.743
-153.174 66.5733 252.792
-149.477 65.4845 253.801
-125.689 65.4283 253.497
-122.41 65.8102 252.488
-117.723 67.9277 252.68
-156.984 72.5726 252.366
-115.372 72.0974 252.189
-114.704 72.8988 253.045
-160.362 77.9162 251.061
-159.192 77.1877 253.142
-115.138 78.086 254.745
-114.025 77.5517 252.445
-160.292 81.4952 252.476
-159.283 83.0506 252.647
-115.07 80.1809 254.507
-113.908 82.3957 252.579
-159.307 87.3489 252.484
-115.686 87.9795 253.625
-114.101 86.7925 251.734
-157.718 92.7757 252.578
-154.805 94.8576 254.089
-117.065 92.7015 252.632
-114.626 90.7238 250.868
-156.035 95.343 252.018
-152.376 97.2789 252.513
-149.68 98.8054 252.27
-121.079 98.4639 252.598
-118.8 96.2586 252.127
-150.13 100.363 251.61
-147.972 102.64 252.603
-142.482 103.53 252.575
-137.613 103.965 252.585
-132.536 104.137 252.646
-127.488 102.539 252.498
-123.233 101.05 252.379
-145.536 105.07 250.414
-144.97 105 250.19
-137.251 105.091 251.706
-132.621 105.106 250.584
-129.941 105.024 250.527
-150.364 64.7372 257.953
-147.17 64.0036 256.871
-142.779 61.9468 257.586
-137.615 62.8957 257.703
-132.65 63.1335 257.337
-128.802 64.2501 256.81
-155.426 69.3614 255.646
-151.84 67.5297 257.363
-148.008 65.7046 258.552
-130.962 65.1364 259.65
-127.169 66.2714 257.906
-122.386 66.9198 257.628
-117.917 68.0013 257.241
-156.018 73.2604 257.298
-153.985 71.3961 258.436
-115.972 72.4458 257.745
-114.901 74.4726 257.616
-160.03 79.81 255.39
-158.198 77.3152 257.327
-115.233 77.4252 258.35
-114.485 77.3348 257.221
-160.066 80.11 255.33
-158.491 82.5817 257.396
-115.71 83.4241 258.586
-114.359 82.2308 257.259
-158.039 87.3788 257.566
-116.501 87.2878 257.617
-114.501 85.2125 255.602
-156.5 91.6687 256.911
-154.122 93.2255 258.507
-120.265 94.8825 259.955
-117.572 92.3242 257.68
-152.113 96.6993 257.206
-149.029 98.6409 258.07
-126.342 99.0767 258.003
-122.147 97.7881 257.572
-119.392 95.6124 257.025
-147.178 101.426 257.013
-142.502 101.794 257.623
-137.59 103.409 257.564
-132.438 103.145 257.365
-128.375 101.356 257.183
-123.862 100.321 255.575
-141.546 63.6625 261.714
-137.878 64.0365 261.189
-133.87 64.5596 260.897
-150.067 67.0957 260.533
-147.708 67.1921 262.305
-142.613 67.2274 262.936
-137.796 66.8934 263.556
-132.439 67.0327 262.759
-127.987 67.9264 262.176
-122.306 68.5059 261.72
-119.26 68.9223 260.839
-155.688 73.6508 261.523
-153.054 71.9519 262.743
-148.986 70.3772 263.333
-141.672 70.4607 264.454
-139.877 70.154 264.888
-131.477 71.1874 264.639
-127.491 72.2468 264.321
-122.339 72.2552 264.183
-118.123 72.5569 262.014
-156.29 77.8544 262.08
-154.588 76.7179 263.728
-126.004 75.3305 264.759
-121.769 76.6201 264.741
-117.353 77.4544 262.894
-114.99 79.01 260.19
-156.367 82.1054 262.45
-154.728 83.7141 264.625
-120.51 82.606 264.039
-117.832 82.2241 262.215
-114.815 81.4658 260.574
-156.195 87.3121 262.312
-154.044 88.058 264.019
-121.288 88.4445 263.962
-119.055 87.4951 262.266
-155.398 90.2961 260.993
-152.638 92.685 262.743
-147.663 93.7824 263.728
-144.128 94.6929 264.787
-125.581 94.7498 264.767
-122.016 92.564 263.055
-119.192 92.1549 261.339
-151.652 95.9738 261.289
-147.182 97.2707 261.612
-142.978 98.003 263.459
-137.81 98.794 263.606
-131.342 99.1919 264.412
-127.014 97.7132 262.748
-123.206 95.5756 261.391
-145.465 100.33 260.559
-142.343 100.784 260.979
-137.047 101.683 261.809
-132.775 101.357 262.378
-128.804 100.994 261.445
-146.101 68.442 265.61
-143.845 68.8991 266.076
-137.811 69.2456 265.494
-151.718 73.1778 266.691
-147.45 71.8787 267.656
-142.486 72.4089 267.219
-137.619 72.4776 266.684
-132.643 72.8712 266.361
-128.974 74.1828 265.67
-155.251 78.6487 265.231
-152.812 77.2291 267.616
-149.514 75.7944 269.797
-140.956 75.4048 269.221
-137.26 77.1167 268.394
-132.89 77.3733 268.617
-127.482 77.5781 266.828
-123.176 78.2179 266.42
-119.255 78.1774 265.027
-155.311 81.1815 265.301
-153.453 82.6076 267.647
-141.738 83.4691 269.337
-137.903 82.1382 269.512
-130.728 82.1427 269.262
-127.383 82.2583 268.341
-122.473 82.523 267.04
-155.282 87.074 265.336
-152.147 87.2907 267.342
-147.48 88.3369 269.105
-142.434 87.4993 268.385
-139.04 86.9546 269.341
-131.721 87.7549 269.173
-127.201 87.5313 269.158
-122.843 87.1663 266.355
-119.874 87.376 265.363
-150.808 91.1167 266.157
-147.68 91.6962 266.559
-142.262 92.3669 266.669
-137.694 92.4825 268.439
-132.517 92.6741 268.942
-127.365 92.5947 268.099
-124.266 91.6818 265.909
-141.378 96.1341 265.603
-137.289 96.92 266.378
-132.194 96.9292 266.953
-128.249 96.4619 265.901
-146.713 74.2598 270.393
-144.123 74.5995 270.495
-150.675 78.2647 270.513
-147.539 77.5236 271.337
-142.841 77.3963 271.331
-139.153 78.6889 270.315
-133.086 79.456 270.283
-151.18 82.5903 270.853
-147.438 82.5114 271.993
-143.489 81.8613 271.092
-136.322 83.0426 270.689
-133.092 82.3896 270.964
-127.546 83.6167 270.508
-150.608 85.1955 270.603
-147.701 86.0246 270.62
-144.836 85.0915 270.266
-136.695 87.5851 270.758
-133.616 87.3023 270.811
-128.163 87.2642 270.583
-136.352 90.496 270.278
-134.382 90.5264 270.412
-128.76 90.0345 270.055
