-92.3073 93.5791 144.019
-88.6375 93.8257 144.328
-103.257 98.9986 144.808
-96.6457 98.0276 144.077
-92.1751 97.6222 143.365
-88.8762 96.6675 144.218
-102.222 101.526 144.753
-97.2587 102.497 143.73
-92.3824 102.34 143.538
-88.0691 103.308 144.724
-83.4886 103.636 144.603
-100.229 105.461 144.866
-97.2148 107.446 143.933
-92.5005 107.299 144.221
-86.9849 106.466 144.768
-83.5371 106.661 144.6
-97.2999 110.685 144.422
-94.25 110.162 144.733
-105.422 89.8818 149.715
-101.866 88.8895 149.359
-97.4869 88.6692 149.068
-92.2441 88.6097 148.569
-87.4106 88.2113 148.471
-84.3567 88.7919 149.516
-110.399 93.5896 149.331
-107.239 92.7989 148.337
-102.455 92.4475 147.161
-97.4255 92.3648 147.312
-93.3098 91.6122 146.361
-86.6293 92.261 146.705
-83.2159 92.8818 149.301
-79.331 94.5868 149.536
-110.956 97.7277 148.966
-107.563 97.4372 146.695
-102.295 97.1785 145.442
-97.7863 96.2938 145.574
-94.7713 95.2467 145.506
-87.0489 97.6312 145.752
-82.6168 97.2295 147.248
-77.9859 97.5636 148.393
-110.887 102.389 149.279
-107.367 102.416 147.003
-102.45 102.771 145.507
-99.549 100.957 145.171
-86.9457 101.918 145.435
-82.3037 101.631 145.701
-77.4119 102.597 147.674
-110.258 105.349 149.828
-106.86 106.748 148.963
-102.576 107.6 146.957
-99.6083 108.715 145.384
-90.7713 109.112 145.454
-87.8732 107.813 145.405
-81.9711 108.342 145.812
-78.0154 107.258 147.986
-101.888 111.798 148.425
-97.6257 113.004 147.038
-92.5779 112.493 147.293
-87.5582 112.69 147.385
-82.4681 112.43 147.811
-79.0946 111.342 149.16
-97.2344 115.269 149.513
-91.7895 115.679 149.546
-87.6815 115.848 149.311
-84.2056 115.37 149.459
-95.7283 79.7565 154.793
-94.831 79.7855 154.855
-105.352 84.5092 154.227
-102.363 83.722 153.828
-97.4233 82.8496 153.508
-92.7388 83.3301 153.813
-87.5608 83.8479 153.519
-83.5617 84.4699 154.459
-110.896 89.0835 153.854
-107.039 87.6207 152.96
-102.724 86.7407 151.379
-97.5497 86.4006 151.323
-92.7031 86.2096 151.663
-87.2759 85.7845 151.039
-82.696 87.4489 152.544
-78.3533 88.7905 154.043
-111.931 92.5829 152.459
-108.581 91.0509 151.084
-81.9537 91.6804 151.281
-77.1968 92.3715 152.428
-74.0244 93.8225 153.633
-115.227 98.3214 154.503
-113.155 97.5864 152.333
-75.9692 96.9787 151.024
-73.7525 97.6282 153.108
-115.066 101.251 154.719
-113.397 102.342 152.323
-75.2775 102.675 150.605
-73.4063 102.612 153.26
-112.011 107.195 152.595
-108.117 109.164 150.932
-75.8365 107.48 151.429
-74.1425 107.642 153.835
-110.762 110.644 154.069
-107.053 111.352 153.129
-103.264 113.345 152.127
-99.6709 114.885 150.174
-80.8811 114.4 151.079
-77.4036 112.684 152.623
-74.7476 110.172 153.699
-101.428 116.654 153.348
-97.6339 116.982 152.322
-92.4209 117.521 152.311
-87.3453 118.15 152.465
-82.7324 117.09 152.607
-79.4595 115.875 153.99
-90.1013 120.07 154.823
-88.7584 120.045 154.808
-101.34 78.9501 159.232
-97.1482 78.5801 157.936
-92.9179 78.6032 157.98
-88.1519 79.3708 159.033
-110.343 84.1947 158.631
-107.296 83.4187 157.851
-102.703 81.5798 157.275
-98.4847 80.7398 155.966
-91.6414 81.1705 156.01
-86.9754 81.3991 156.954
-82.3855 82.9564 157.665
-77.8461 84.2338 158.286
-74.8707 84.831 159.737
-112.037 87.7106 157.593
-108.224 85.6329 156.011
-80.9462 86.1692 155.577
-76.905 87.2059 156.503
-74.293 88.1611 158.853
-115.82 94.1095 158.854
-114.103 92.0538 157.232
-75.3617 90.7092 155.269
-72.6939 92.2526 157.553
-115.607 97.5658 157.774
-114.251 96.5594 156.376
-71.4626 97.5516 157.638
-115.662 101.904 157.937
-114.805 103.593 156.611
-71.8314 102.425 157.539
-115.301 106.274 158.172
-113.899 108.387 157.258
-75.042 109.803 155.47
-72.7968 107.452 157.451
-111.319 111.175 157.93
-107.389 112.805 157.559
-103.92 114.106 156.948
-76.5098 113.385 157.237
-73.9088 111.443 157.901
-105.216 115.735 159.785
-102.715 117.69 157.557
-97.2487 118.715 157.39
-92.7325 119.188 157.335
-86.2394 119.582 156.629
-82.3287 118.726 157.481
-78.4321 116.516 157.783
-100.88 120.383 159.291
-99.1188 120.183 158.774
-90.5211 120.475 158.131
-87.8328 120.399 157.832
-84.734 120.188 159.595
-102.163 78.2253 162.688
-97.3566 76.7268 162.498
-92.2495 76.9849 162.303
-87.4349 78.0949 162.526
-83.8898 79.1957 163.164
-110.379 83.7626 162.383
-107.692 81.6584 162.653
-104.148 80.9243 161.795
-85.7061 80.1982 160.358
-81.8074 81.2842 162.079
-77.2637 82.5562 162.519
-74.2957 84.3248 163.067
-112.721 87.3283 162.603
-72.2826 87.5356 162.583
-115.505 93.3687 162.575
-114.058 91.045 162.387
-70.6717 92.4986 162.44
-69.9157 93.5371 163.562
-115.976 97.5785 162.418
-70.4598 97.4521 161.681
-69.7114 97.9664 163.045
-116.016 102.231 162.326
-70.6392 102.746 161.045
-69.5157 101.983 163.156
-115.391 106.066 162.341
-114.296 108.447 162.434
-71.6501 107.609 162.652
-69.8479 105.385 162.479
-111.878 111.51 162.593
-107.717 113.441 162.566
-104.867 114.614 164.616
-75.6821 114.528 162.769
-74.1559 112.125 162.545
-105.677 116.306 162.388
-103.5 118.642 162.496
-96.8545 119.148 162.568
-93.0214 119.56 162.344
-86.8922 119.528 163.236
-82.3547 118.507 162.636
-77.7526 116.433 162.301
-74.984 115.08 162.3
-100.897 120.332 162.011
-99.1412 120.177 162.549
-91.5399 120.398 162.982
-87.6716 120.363 162.174
-84.769 120.152 160.252
-95.5966 74.8689 167.244
-94.7581 74.9225 167.453
-105.78 79.703 167.38
-102.338 77.9697 167.411
-97.6695 76.0274 167.512
-92.587 76.3841 167.595
-87.4117 77.7231 167.486
-83.5552 79.0693 167.482
-110.598 83.5826 167.666
-107.94 81.1077 167.446
-104.264 80.3269 166.329
-81.1525 80.4732 167.763
-77.3277 81.1589 167.291
-73.642 83.3469 167.68
-115.096 89.8926 167.383
-112.704 87.5915 167.502
-71.1441 87.2585 167.359
-69.8161 89.7541 169.659
-115.613 92.547 167.012
-114.649 91.2778 168.382
-70.3183 92.0829 167.028
-69.2191 93.144 168.573
-115.73 97.0692 167.338
-114.587 99.2221 168.128
-70.098 95.6285 167.819
-69.5127 97.6923 167.654
-115.486 102.114 167.072
-114.809 103.036 167.872
-70.6544 103.339 167.923
-69.2757 101.376 166.945
-115.132 106.299 165.887
-113.817 107.824 167.468
-72.1143 107.588 167.558
-69.9955 105.68 166.2
-111.421 111.016 167.309
-107.38 113.059 167.491
-104.959 114.194 167.481
-76.4148 113.584 167.782
-73.8878 111.404 167.07
-105.399 116.399 167.304
-102.903 118.696 167.609
-97.1998 118.973 167.785
-92.5071 119.439 167.97
-87.6889 119.339 167.966
-82.6391 117.765 167.413
-78.5377 116.362 167.482
-101.204 120.197 166.46
-98.3684 120.284 165.773
-92.4099 120.398 166.695
-87.1259 120.366 166.154
-84.964 120.08 165.2
-105.615 79.8386 174.307
-102.162 78.5535 172.132
-97.4468 76.4977 172.525
-92.4124 77.6369 172.683
-87.7592 78.2614 172.426
-83.9635 79.2718 171.972
-110.754 84.1638 171.498
-107.418 81.9612 172.391
-103.787 80.4272 173.362
-86.1974 80.0756 174.631
-81.981 81.2619 172.698
-77.2912 81.8583 172.638
-73.0377 83.289 172.266
-111.421 87.5843 172.386
-109.849 86.3905 174.31
-71.247 87.4695 172.516
-69.9127 89.6813 170.197
-115.194 93.7697 171.741
-113.887 92.2052 172.675
-70.5503 92.5388 172.833
-69.5855 92.3625 172.189
-115.427 97.1807 171.312
-114.297 97.8446 172.907
-70.5906 97.2692 173.328
-69.5309 97.8999 171.733
-115.057 101.42 170.706
-114.18 102.484 172.644
-71.7692 102.302 172.6
-69.7255 100.274 171.165
-112.22 107.421 172.597
-109.455 109.259 174.18
-72.9601 107.468 172.455
-110.74 110.302 170.936
-107.53 112.378 172.376
-104.505 113.94 174.086
-81.5817 114.161 173.68
-76.8259 112.941 172.751
-74.5279 110.495 172.379
-105.358 115.579 171.1
-102.808 117.245 172.256
-97.4372 117.405 172.435
-92.6707 119.084 172.646
-87.3666 118.43 172.496
-83.0666 116.587 172.052
-78.6573 115.722 171.126
-90.8518 120.171 170.942
-105.533 79.9386 175.236
-100.602 79.2741 175.724
-96.9265 78.4625 177.195
-92.3676 79.0863 176.421
-88.6233 79.0704 175.797
-105.934 82.7526 176.151
-102.773 81.853 177.898
-97.7231 82.0161 178.837
-92.9882 81.0929 178.599
-87.3068 81.4203 178.028
-82.9829 82.8249 177.393
-77.3864 83.3549 177.079
-74.0538 83.9862 175.932
-111.035 88.6196 177.445
-107.979 86.2996 177.46
-104.522 85.4445 179.036
-81.4845 85.204 179.821
-76.4989 86.03 179.315
-72.9899 87.6514 177.122
-112.049 92.6585 177.662
-71.7458 92.4278 177.484
-69.92 91.2445 175.139
-112.488 97.3475 177.705
-75.5539 98.3596 179.201
-72.1323 97.3159 177.443
-69.8969 97.5584 175.349
-112.178 102.346 177.581
-109.515 104.531 179.594
-75.4557 102.441 178.729
-73.3815 102.488 176.675
-110.725 106.08 176.38
-108.635 108.327 178.044
-103.291 109.5 179.158
-76.8127 107.84 178.452
-73.872 107.35 176.309
-106.991 111.36 177.061
-102.646 112.8 177.857
-98.0035 114.11 179.122
-93.6206 114.28 179.314
-85.6449 114.6 179.747
-81.9396 112.9 177.786
-77.8354 111.066 176.651
-74.5386 110.118 175.202
-101.51 115.74 176.093
-97.3129 116.297 176.68
-92.3794 117.47 177.537
-87.513 116.983 177.545
-83.9464 115.905 176.958
-91.838 120 175.1
-96.338 79.909 180.065
-101.777 83.2018 181.295
-97.4761 83.403 181.104
-92.561 83.442 181.01
-87.7941 84.1619 180.366
-84.5294 84.5953 180.195
-110.113 88.3495 180.22
-107.452 87.7804 182.154
-102.504 86.5205 182.987
-97.4548 87.0958 182.778
-92.3862 87.4637 182.922
-87.3471 87.614 181.939
-82.6996 87.6245 180.733
-77.619 87.9986 180.736
-74.556 89.4868 180.363
-110.721 93.1305 181.222
-108.842 92.0696 183.214
-96.0103 90.3178 184.185
-92.3121 91.6819 183.916
-87.424 91.8808 184.332
-82.2928 92.4283 182.724
-77.6755 92.7877 181.851
-74.0661 92.8134 180.712
-110.809 97.4107 181.193
-109.318 97.5197 183.497
-86.072 95.5837 184.848
-81.9022 97.2796 183.622
-77.4018 97.512 182.645
-74.3152 95.6059 180.244
-110.808 102.164 181.119
-108.006 102.896 183.034
-101.684 104.481 184.349
-97.8571 103.393 184.348
-87.6576 103.046 184.864
-80.7446 102.486 184.202
-77.2896 102.436 181.812
-74.994 104.23 180.7
-106.627 107.1 181.747
-102.629 107.351 182.261
-97.3917 107.579 183.15
-92.6602 108.568 184.445
-88.2792 109.109 184.548
-81.9501 108.142 183.474
-78.2831 106.68 181.053
-100.441 111.213 180.259
-97.3953 111.931 181.288
-92.4703 112.549 182.377
-87.2408 112.268 182.899
-83.1208 111.937 181.494
-79.6206 110.178 180.313
-90.8783 115.741 180.512
-88.4469 115.513 180.664
-105.735 89.2274 185.461
-102.431 88.7931 186.048
-99.4457 89.7657 185.822
-106.495 92.703 186.215
-102.568 92.4563 187.69
-97.6291 92.2055 187.041
-92.657 93.6231 185.767
-88.359 93.4198 185.69
-84.3629 94.7915 185.099
-107.042 97.5715 186.843
-102.223 97.5783 188.266
-97.617 97.5749 186.439
-92.3328 97.4472 186.4
-87.4621 97.5048 186.606
-83.366 97.972 186.111
-106.379 101.472 185.959
-102.665 102.035 186.393
-96.9759 101.456 185.389
-92.6192 102.497 186.827
-87.4767 102.581 186.111
-83.2818 102.511 186.516
-95.4441 105.717 185.317
-92.1936 106.339 185.931
-87.3761 107.201 185.642
-83.4801 106.617 185.609
-86.8192 110.414 185.256
