-5.8503 -121.638 49.7472
-3.3274 -122.342 49.7398
-5.81263 -119.626 49.8008
-4.9299 -119.92 49.891
-15.4937 -130.523 54.8809
-12.7039 -130.719 54.4441
-7.39055 -131.017 54.5012
-2.43855 -131.912 53.4304
2.20307 -132.007 53.8973
-20.3726 -125.599 54.7021
-17.1286 -126.97 53.8635
-12.5698 -127.669 53.1766
-7.21899 -127.456 52.8258
-2.64569 -127.668 50.9899
2.5323 -127.278 52.6162
6.79724 -126.015 54.5119
10.313 -125.658 54.7742
-20.484 -124.333 54.6416
-17.5599 -122.494 53.4201
-12.563 -122.415 52.2977
-7.93278 -122.617 51.3462
-1.98177 -122.488 51.0563
2.43489 -122.469 52.8093
7.31565 -122.706 53.437
11.1287 -121.897 54.3923
-16.5436 -118.522 54.1385
-12.5087 -117.421 52.9946
-7.57645 -117.449 50.9078
-2.3989 -117.423 51.2764
2.4438 -117.462 52.093
7.46918 -117.505 52.3027
11.2375 -117.728 53.8771
-11.6951 -112.778 53.7488
-7.57315 -112.278 51.9962
-2.53463 -112.482 52.862
2.33632 -112.592 53.2444
7.17561 -112.637 53.5761
10.2592 -114.214 54.6246
-10.3177 -109.81 54.6806
-7.70931 -109.303 54.2989
-1.72491 -109.617 54.6735
2.38747 -109.444 54.6471
5.63451 -109.456 54.7133
-15.6099 -136.283 59.0063
-12.5031 -136.365 58.5426
-7.5837 -136.791 58.7235
-2.52136 -136.398 58.3147
2.28755 -136.579 57.9085
5.578 -135.774 58.9143
-21.0978 -131.349 58.8783
-17.4926 -132.381 57.7651
-12.4228 -133.153 56.3517
-7.52836 -133.23 56.1278
-3.2091 -133.882 56.1638
3.52871 -133.366 55.8129
6.8047 -132.241 58.2439
11.2282 -131.097 59.3196
-21.9756 -127.564 57.6299
-18.732 -128.595 55.4883
4.3495 -128.743 55.7883
7.66673 -128.183 56.5328
12.5119 -127.328 57.8449
15.3141 -126.079 59.6528
-25.2335 -123.222 59.8192
-22.7027 -122.584 57.706
-19.861 -122.312 55.1672
13.2904 -122.702 56.6747
15.5742 -122.542 59.3121
-22.1452 -117.778 57.9307
-17.9297 -116.792 55.9615
-14.8419 -115.21 55.3399
13.5314 -117.302 57.3279
15.3893 -118.925 59.5204
-21.0536 -113.792 59.045
-17.1492 -112.831 58.0645
-13.7005 -111.779 56.2442
9.04562 -110.823 55.5413
12.2132 -112.571 57.8306
-15.2799 -109.68 59.7914
-12.0106 -108.201 58.2227
-7.57504 -107.023 57.4621
-2.75114 -106.999 57.0166
2.44432 -106.882 56.7278
7.58952 -107.75 57.7071
11.068 -109.026 58.8747
-10.247 -104.884 59.5985
-9.58712 -104.86 59.6092
-1.58644 -104.519 59.144
2.54316 -104.423 59.163
5.73571 -104.629 59.474
-4.5638 -145.12 64.8784
-15.1776 -140.251 64.6004
-12.3396 -140.943 63.4427
-7.41491 -142.25 62.7189
-2.87899 -142.052 63.2297
2.33323 -141.058 63.5512
5.52935 -140.498 64.3063
-20.8901 -136.406 63.7047
-17.3245 -137.359 62.4459
-12.644 -138.628 61.0905
-7.76444 -139.474 60.5285
-2.6779 -138.393 61.0686
2.80965 -139.056 61.5222
7.59526 -137.488 62.5664
11.7965 -136.668 63.7016
-25.069 -131.558 64.3197
-22.9262 -132.664 62.3277
-17.8938 -134.55 60.4588
8.99778 -134.168 60.8598
12.8995 -132.771 62.1146
16.0472 -131.002 63.9665
-25.7514 -126.575 63.9163
-23.9982 -127.683 62.092
14.4295 -129.722 61.0718
16.7378 -127.826 62.5708
-25.7945 -122.54 62.7262
-24.6236 -122.365 60.6778
16.9914 -122.481 62.5779
-25.5451 -117.819 63.5891
-24.3303 -116.988 61.4553
14.7009 -116.355 60.558
16.8971 -117.502 62.6764
-25.3293 -114.358 64.1226
-22.4773 -112.696 62.6526
-18.1951 -110.732 62.1517
14.278 -111.891 61.7905
15.7017 -113.29 62.9986
-16.1733 -109.482 63.0173
-13.5311 -107.246 62.3142
-7.33841 -105.295 60.4913
-3.94582 -105.203 60.1983
8.95631 -105.641 61.908
11.8061 -108.174 62.5566
-11.7952 -104.284 62.8593
-7.60673 -104.079 62.8552
-2.36169 -103.494 62.7481
2.49372 -103.212 62.3059
6.81618 -103.91 62.9831
-11.2161 -145.364 68.4976
-7.16387 -145.761 68.2477
-3.3951 -145.653 68.1915
0.474431 -145.209 69.2791
-20.4639 -140.576 68.994
-17.1978 -140.835 67.9851
-13.0569 -142.769 67.202
-7.75093 -144.405 66.1247
-1.89722 -143.982 67.1706
2.73532 -143.253 67.4065
6.99119 -141.372 67.9249
11.7681 -140.48 69.2985
-21.6813 -137.251 67.5877
-18.1759 -139.29 65.6166
8.62055 -139.078 66.5482
12.9004 -138.324 67.1002
15.5889 -136.332 68.3827
-25.3008 -131.273 67.211
-24.3645 -133.025 67.5097
14.7653 -133.741 65.2751
17.0783 -132.515 67.4526
-26.2063 -127.483 67.406
18.7679 -127.487 67.5613
-26.4628 -122.462 67.4392
18.6507 -122.625 67.4236
20.1377 -121.377 69.3879
-25.8513 -117.504 67.4367
18.2086 -117.467 67.4671
-25.254 -114.299 67.07
-22.8689 -111.856 67.6581
-19.3751 -110.269 66.5845
14.876 -110.646 69.1004
16.3787 -112.461 67.3036
-20.2769 -109.793 69.6201
-17.1007 -108.02 67.7891
-14.5187 -106.424 66.2038
9.79945 -105.14 67.394
12.7488 -107.202 67.556
15.1387 -109.34 69.1734
-15.16 -104.452 68.9332
-12.692 -103.059 67.4331
-7.53515 -103.57 67.4943
-2.43683 -102.696 67.425
2.52563 -102.43 67.4853
7.39951 -103.939 67.4576
10.1902 -104.89 68.8871
-11.4235 -145.929 72.4918
-7.52518 -146.503 72.5834
-2.48606 -146.225 72.6034
1.02984 -145.379 72.5791
-20.4424 -140.548 72.4517
-17.495 -141.765 72.4507
-13.4241 -143.631 72.5614
3.23228 -144.332 72.281
7.426 -142.572 72.3433
12.3616 -141.071 72.5449
15.2326 -140.392 74.2549
-22.0026 -137.347 72.5285
-19.931 -139.711 71.8806
14.372 -139.299 71.36
16.8084 -137.014 72.5478
-25.7787 -131.319 72.952
-24.0945 -133.591 72.2617
18.8401 -132.573 72.3732
-26.3903 -127.47 72.5231
19.3694 -127.753 72.4684
20.2881 -127.331 73.7772
-26.4491 -122.549 72.3902
-24.9517 -123.087 74.5145
19.7102 -122.57 72.2742
20.3459 -121.976 72.8201
-25.8554 -117.547 72.6436
-24.8076 -115.249 72.6303
19.0539 -117.277 72.5808
-25.131 -114.893 73.4482
-22.9728 -112.338 72.6689
-19.4509 -110.185 73.49
14.6198 -110.331 73.7129
16.3146 -112.571 72.6268
-20.8576 -109.829 71.4176
-16.9684 -108.148 72.545
8.57518 -105.464 73.4389
12.319 -107.422 72.5893
15.1338 -109.219 70.644
-15.5395 -104.428 72.347
-12.5452 -103.035 72.655
-7.43687 -103.12 72.507
-2.52859 -102.574 72.5102
2.62637 -102.859 72.4862
6.90861 -104.354 72.2463
-11.1522 -145.582 77.3288
-7.58227 -146.62 77.4343
-2.58867 -145.953 77.2611
0.802238 -145.36 77.2548
-20.5514 -140.749 76.2613
-17.253 -141.919 77.4461
-13.6692 -143.911 77.944
-2.99169 -144.517 79.5967
2.86721 -144.252 77.7405
7.38121 -142.293 77.6759
12.6465 -141.188 77.6718
15.6294 -140.41 77.851
-21.6535 -137.475 77.4275
-19.0073 -139.482 79.0114
14.863 -139.946 78.2914
17.6533 -137.72 77.4093
-25.4681 -131.231 76.6607
-23.4673 -132.912 77.6595
18.9942 -132.661 77.4152
20.2589 -130.487 77.3521
-25.8944 -127.532 77.6879
-24.9413 -127.008 79.1938
19.4042 -127.406 77.764
20.411 -127.91 76.6742
-25.6103 -122.652 77.3481
-24.8636 -122.553 78.3251
18.869 -121.888 77.802
20.192 -123.165 77.0885
-25.3605 -118.068 76.5967
-24.3549 -116.797 78.5981
17.3769 -117.24 77.2937
-22.1489 -112.915 77.3894
-18.9468 -110.615 77.4428
14.0588 -111.038 77.7698
16.1541 -113.35 77.1555
-16.4822 -108.071 77.4966
-14.5556 -105.938 79.0993
-6.6934 -105.463 78.7003
3.84951 -105.354 79.6242
7.78047 -106.372 77.8857
11.9424 -107.76 77.3672
-15.1439 -104.849 76.5688
-12.5558 -104.05 77.2826
-7.56941 -104.056 77.0843
-2.58217 -103.076 77.4234
2.39547 -103.579 77.5238
5.75508 -104.454 76.7912
-10.2016 -145.136 80.2272
-7.25619 -145.713 81.7858
-1.89994 -145.374 80.6739
0.26421 -145.317 80.4797
-16.3153 -141.587 82.1613
-12.4807 -142.619 82.4367
-7.51001 -143.641 83.7943
-2.77913 -143.59 82.5194
2.35896 -142.832 82.4916
6.71177 -141.044 81.8281
12.2161 -140.38 81.252
15.6445 -140.212 80.6383
-20.5784 -136.452 81.3721
-17.7835 -137.916 82.9619
7.63802 -139.689 83.6935
12.8564 -139.395 83.5961
16.5676 -137.282 82.3566
-25.275 -130.421 80.506
-22.5779 -132.747 82.4402
18.2738 -132.516 82.6105
-25.3021 -128.647 80.353
-23.8722 -127.624 82.7955
18.7848 -127.511 82.5484
-25.3274 -122.832 80.5319
-23.9643 -122.318 82.6068
14.4351 -121.906 84.6266
17.5578 -122.664 82.4571
-22.5657 -117.193 82.2481
-19.989 -115.03 84.89
14.4613 -117.049 84.4206
16.6006 -117.431 82.2462
-20.8175 -113.976 81.6378
-18.2564 -111.594 82.8814
-14.1016 -111.1 84.256
8.85571 -110.924 84.0294
12.8017 -111.779 82.989
15.564 -113.687 82.1574
-15.7478 -109.203 81.6317
-12.901 -107.221 82.6922
-7.51376 -105.939 82.7232
-3.70039 -105.643 84.687
3.36844 -105.501 82.6832
7.05013 -107.912 82.3304
11.9048 -109.018 80.86
-11.4925 -104.854 80.3029
-6.502 -104.852 81.3723
-2.49767 -103.796 82.3299
1.25173 -104.294 81.9107
-15.2891 -140.518 85.2422
-12.2821 -140.912 86.7025
-7.09895 -142.052 86.2837
-2.42557 -141.543 86.3702
1.96596 -141.106 85.7946
5.09798 -140.3 85.3832
-20.5938 -135.454 86.3569
-17.2248 -136.506 87.1695
-12.6998 -138.23 88.1948
-7.56681 -137.882 87.982
-2.75591 -138.015 88.5812
2.52188 -137.429 87.7802
7.30073 -137.383 87.0072
12.4823 -136.938 86.5726
15.3507 -135.669 85.391
-21.1539 -132.196 86.7763
-19.3019 -133.127 88.9433
3.26298 -134.114 88.9898
7.47341 -132.58 88.5682
12.5986 -132.509 88.1069
16.1869 -132.116 86.3864
-21.9093 -127.411 87.2828
-19.7847 -127.709 89.5455
7.5165 -128.194 89.6872
12.9946 -127.543 88.3438
16.3803 -127.552 86.4879
-21.4848 -122.539 87.5914
-19.9219 -122.11 89.8383
9.84717 -120.374 89.8076
13.2689 -122.224 87.9165
15.7436 -123.951 85.4881
-21.3415 -118.613 86.8305
-18.5705 -117.147 88.3388
-12.8334 -115.655 89.3733
-9.14007 -115.594 89.8512
9.69459 -116.817 89.3582
12.7313 -117.53 87.4001
15.0924 -119.72 85.1732
-17.2579 -113.321 86.8843
-12.5825 -112.796 87.3189
-7.95831 -111.958 89.0882
-4.42797 -110.742 89.7116
3.09274 -110.462 89.4882
7.78032 -111.961 87.9564
11.5386 -113.664 86.143
-11.546 -108.852 86.1527
-7.70667 -108.666 86.829
-2.63598 -107.595 87.3243
2.30036 -107.604 87.3706
6.09097 -108.561 86.9105
-2.49962 -104.674 85.6358
-15.8817 -135.769 90.8057
-12.6821 -135.884 90.8289
-8.41695 -136.345 90.5111
-2.28856 -135.872 90.2719
-20.3153 -130.664 90.5824
-17.443 -132.207 92.066
-12.541 -132.719 93.5897
-7.58399 -132.575 92.0437
-2.65986 -132.269 90.8334
1.79503 -132.053 91.2165
7.46752 -130.683 90.2382
-20.2772 -126.626 90.306
-17.935 -127.767 92.8924
-13.3417 -128.243 94.8203
-7.17905 -127.048 93.9672
-2.31813 -127.726 92.9806
2.39381 -127.429 93.0646
7.22768 -127.12 91.2729
11.1126 -126.892 91.0973
-20.2029 -123.408 91.3036
-18.0549 -122.366 92.7364
-12.2035 -121.998 93.9851
-7.51532 -122.347 92.6365
-2.71229 -122.63 94.102
2.58581 -122.318 93.4352
7.37524 -122.823 92.478
11.4569 -123.375 90.7267
-16.5889 -118.123 91.4101
-12.8555 -117.779 91.5579
-7.42431 -117.551 91.4697
-2.50976 -117.33 93.5352
2.37031 -117.747 93.0417
7.36904 -117.41 92.2538
-15.6542 -114.683 90.2339
-14.984 -114.91 90.096
-6.7363 -113.955 90.472
-2.43758 -112.649 91.2763
2.37908 -112.437 91.6781
6.50595 -113.781 91.2887
-1.72674 -109.463 90.3446
1.12919 -109.858 90.2971
-11.0342 -130.442 95.1669
-9.6928 -130.198 95.074
-15.7216 -126.384 95.3635
-12.4319 -127.429 95.7178
-9.43726 -128.339 95.4061
-15.7553 -123.771 95.4422
-13.1315 -123.872 95.4081
-1.93218 -121.899 95.0633
