0.24602 -6.4714 -0.36909
0.24602 -6.4714 1.4129
0.24602 -5.6078 -0.36909
0.24602 -5.6078 1.4129
0.25451 -6.0879 -0.46577
0.25451 -6.0879 1.5096
0.25451 -5.9912 -0.46577
0.25451 -5.9912 1.5096
0.26217 -6.0396 -0.46577
0.26217 -6.0396 1.5096
0.28737 -6.5986 -0.2871
0.28737 -6.5986 1.3309
0.28737 -6.2896 -0.42914
0.28737 -6.2896 1.473
0.28737 -5.7896 -0.42914
0.28737 -5.7896 1.473
0.28737 -5.4806 -0.2871
0.28737 -5.4806 1.3309
0.32424 -6.7121 -0.18519
0.32424 -6.7121 1.229
0.32424 -5.3671 -0.18519
0.32424 -5.3671 1.229
0.35573 -6.809 -0.065864
0.35573 -6.809 1.1097
0.35573 -6.2212 -0.42914
0.35573 -6.2212 1.473
0.35573 -5.8579 -0.42914
0.35573 -5.8579 1.473
0.35573 -5.2702 -0.065864
0.35573 -5.2702 1.1097
0.37258 -6.4069 -0.36909
0.37258 -6.4069 1.4129
0.37258 -5.6723 -0.36909
0.37258 -5.6723 1.4129
0.38107 -6.887 0.06793
0.38107 -6.887 0.97591
0.38107 -5.1922 0.06793
0.38107 -5.1922 0.97591
0.39962 -6.9441 0.2129
0.39962 -6.9441 0.83094
0.39962 -6.1351 -0.42914
0.39962 -6.1351 1.473
0.39962 -5.9441 -0.42914
0.39962 -5.9441 1.473
0.39962 -5.1351 0.2129
0.39962 -5.1351 0.83094
0.41094 -6.9789 0.36549
0.41094 -6.9789 0.67836
0.41094 -5.1002 0.36549
0.41094 -5.1002 0.67836
0.41475 -6.9906 0.52192
0.41475 -6.0396 -0.42914
0.41475 -6.0396 1.473
0.41475 -5.0885 0.52192
0.45122 -6.5151 -0.2871
0.45122 -6.5151 1.3309
0.45122 -5.5641 -0.2871
0.45122 -5.5641 1.3309
0.47302 -6.3064 -0.36909
0.47302 -6.3064 1.4129
0.47302 -5.7727 -0.36909
0.47302 -5.7727 1.4129
0.52136 -6.6116 -0.18519
0.52136 -6.6116 1.229
0.52136 -5.4675 -0.18519
0.52136 -5.4675 1.229
0.5375 -6.1799 -0.36909
0.5375 -6.1799 1.4129
0.5375 -5.8993 -0.36909
0.5375 -5.8993 1.4129
0.55972 -6.0396 -0.36909
0.55972 -6.0396 1.4129
0.58126 -6.6941 -0.065864
0.58126 -6.6941 1.1097
0.58126 -6.3851 -0.2871
0.58126 -6.3851 1.3309
0.58126 -5.6941 -0.2871
0.58126 -5.6941 1.3309
0.58126 -5.3851 -0.065864
0.58126 -5.3851 1.1097
0.62945 -6.7604 0.06793
0.62945 -6.7604 0.97591
0.62945 -5.3187 0.06793
0.62945 -5.3187 0.97591
0.66475 -6.809 0.2129
0.66475 -6.809 0.83094
0.66475 -6.2212 -0.2871
0.66475 -6.2212 1.3309
0.66475 -5.8579 -0.2871
0.66475 -5.8579 1.3309
0.66475 -5.2702 0.2129
0.66475 -5.2702 0.83094
0.67779 -6.4552 -0.18519
0.67779 -6.4552 1.229
0.67779 -5.624 -0.18519
0.67779 -5.624 1.229
0.68628 -6.8386 0.36549
0.68628 -6.8386 0.67836
0.68628 -5.2405 0.36549
0.68628 -5.2405 0.67836
0.69352 -6.8486 0.52192
0.69352 -6.0396 -0.2871
0.69352 -6.0396 1.3309
0.69352 -5.2306 0.52192
0.76024 -6.5151 -0.065864
0.76024 -6.5151 1.1097
0.76024 -5.5641 -0.065864
0.76024 -5.5641 1.1097
0.77823 -6.2581 -0.18519
0.77823 -6.2581 1.229
0.77823 -5.8211 -0.18519
0.77823 -5.8211 1.229
0.81284 -6.0396 -0.18519
0.81284 -6.0396 1.229
0.82657 -6.5633 0.06793
0.82657 -6.5633 0.97591
0.82657 -5.5159 0.06793
0.82657 -5.5159 0.97591
0.87515 -6.5986 0.2129
0.87515 -6.5986 0.83094
0.87515 -6.2896 -0.065864
0.87515 -6.2896 1.1097
0.87515 -5.7896 -0.065864
0.87515 -5.7896 1.1097
0.87515 -5.4806 0.2129
0.87515 -5.4806 0.83094
0.90479 -6.6201 0.36549
0.90479 -6.6201 0.67836
0.90479 -5.459 0.36549
0.90479 -5.459 0.67836
0.91475 -6.6274 0.52192
0.91475 -6.0396 -0.065864
0.91475 -6.0396 1.1097
0.91475 -5.4518 0.52192
0.95313 -6.3149 0.06793
0.95313 -6.3149 0.97591
0.95313 -5.7642 0.06793
0.95313 -5.7642 0.97591
0.99674 -6.0396 0.06793
0.99674 -6.0396 0.97591
1.0102 -6.3335 0.2129
1.0102 -6.3335 0.83094
1.0102 -5.7457 0.2129
1.0102 -5.7457 0.83094
1.0451 -6.3448 0.36549
1.0451 -6.3448 0.67836
1.0451 -5.7344 0.36549
1.0451 -5.7344 0.67836
1.0568 -6.3486 0.52192
1.0568 -6.0396 0.2129
1.0568 -6.0396 0.83094
1.0568 -5.7306 0.52192
1.0934 -6.0396 0.36549
1.0934 -6.0396 0.67836
1.1057 -6.0396 0.52192
-0.45567 -7.4451 1.0577
-0.44336 -7.4451 0.90125
-0.44336 -7.4451 1.2141
-0.40673 -7.7541 1.0577
-0.40673 -7.4451 0.74866
-0.40673 -7.4451 1.3667
-0.40673 -7.1361 1.0577
-0.39502 -7.7503 0.90125
-0.39502 -7.7503 1.2141
-0.39502 -7.1399 0.90125
-0.39502 -7.1399 1.2141
-0.36018 -7.739 0.74866
-0.36018 -7.739 1.3667
-0.36018 -7.1512 0.74866
-0.36018 -7.1512 1.3667
-0.34668 -7.4451 0.60369
-0.34668 -7.4451 1.5117
-0.30307 -7.7205 0.60369
-0.30307 -7.7205 1.5117
-0.30307 -7.1698 0.60369
-0.30307 -7.1698 1.5117
-0.26469 -7.4451 0.4699
-0.26469 -7.4451 1.6455
-0.26469 -8.0329 1.0577
-0.26469 -6.8573 1.0577
-0.25473 -8.0257 0.90125
-0.25473 -8.0257 1.2141
-0.25473 -6.8646 0.90125
-0.25473 -6.8646 1.2141
-0.2251 -7.6951 0.4699
-0.2251 -7.6951 1.6455
-0.2251 -7.1951 0.4699
-0.2251 -7.1951 1.6455
-0.2251 -8.0041 0.74866
-0.2251 -8.0041 1.3667
-0.2251 -6.8861 0.74866
-0.2251 -6.8861 1.3667
-0.17651 -7.9688 0.60369
-0.17651 -7.9688 1.5117
-0.17651 -6.9214 0.60369
-0.17651 -6.9214 1.5117
-0.16278 -7.4451 0.35057
-0.16278 -7.4451 1.7648
-0.12817 -7.6636 0.35057
-0.12817 -7.6636 1.7648
-0.12817 -7.2266 0.35057
-0.12817 -7.2266 1.7648
-0.11018 -7.9207 0.4699
-0.11018 -7.9207 1.6455
-0.11018 -6.9696 0.4699
-0.11018 -6.9696 1.6455
-0.04346 -7.4451 0.24866
-0.04346 -7.4451 1.8667
-0.04346 -8.2541 1.0577
-0.04346 -6.6361 1.0577
-0.036224 -8.2442 0.90125
-0.036224 -8.2442 1.2141
-0.036224 -6.6461 0.90125
-0.036224 -6.6461 1.2141
-0.027736 -7.8608 0.35057
-0.027736 -7.8608 1.7648
-0.027736 -7.0295 0.35057
-0.027736 -7.0295 1.7648
-0.014692 -7.6268 0.24866
-0.014692 -7.6268 1.8667
-0.014692 -7.2635 0.24866
-0.014692 -7.2635 1.8667
-0.014692 -8.2145 0.74866
-0.014692 -8.2145 1.3667
-0.014692 -6.6757 0.74866
-0.014692 -6.6757 1.3667
0.020605 -8.166 0.60369
0.020605 -8.166 1.5117
0.020605 -6.7243 0.60369
0.020605 -6.7243 1.5117
0.068797 -7.7906 0.24866
0.068797 -7.7906 1.8667
0.068797 -7.0996 0.24866
0.068797 -7.0996 1.8667
0.068797 -8.0996 0.4699
0.068797 -8.0996 1.6455
0.068797 -6.7906 0.4699
0.068797 -6.7906 1.6455
0.090335 -7.4451 0.16667
0.090335 -7.4451 1.9487
0.11255 -7.5854 0.16667
0.11255 -7.5854 1.9487
0.11255 -7.3048 0.16667
0.11255 -7.3048 1.9487
0.1287 -8.0172 0.35057
0.1287 -8.0172 1.7648
0.1287 -6.8731 0.35057
0.1287 -6.8731 1.7648
0.17704 -7.712 0.16667
0.17704 -7.712 1.9487
0.17704 -7.1783 0.16667
0.17704 -7.1783 1.9487
0.19883 -7.9207 0.24866
0.19883 -7.9207 1.8667
0.19883 -6.9696 0.24866
0.19883 -6.9696 1.8667
0.23531 -7.4451 0.10662
0.23531 -7.4451 2.0087
0.23531 -8.3962 1.0577
0.23531 -6.4941 1.0577
0.23911 -8.3845 0.90125
0.23911 -8.3845 1.2141
0.23911 -6.5058 0.90125
0.23911 -6.5058 1.2141
0.25043 -7.5406 0.10662
0.25043 -7.5406 2.0087
0.25043 -7.3496 0.10662
0.25043 -7.3496 2.0087
0.25043 -8.3496 0.74866
0.25043 -8.3496 1.3667
0.25043 -6.5406 0.74866
0.25043 -6.5406 1.3667
0.26899 -8.2925 0.60369
0.26899 -8.2925 1.5117
0.26899 -6.5977 0.60369
0.26899 -6.5977 1.5117
0.27748 -7.8124 0.16667
0.27748 -7.8124 1.9487
0.27748 -7.0778 0.16667
0.27748 -7.0778 1.9487
0.29433 -7.6268 0.10662
0.29433 -7.6268 2.0087
0.29433 -7.2635 0.10662
0.29433 -7.2635 2.0087
0.29433 -8.2145 0.4699
0.29433 -8.2145 1.6455
0.29433 -6.6757 0.4699
0.29433 -6.6757 1.6455
0.32582 -8.1176 0.35057
0.32582 -8.1176 1.7648
0.32582 -6.7726 0.35057
0.32582 -6.7726 1.7648
0.36269 -7.6951 0.10662
0.36269 -7.6951 2.0087
0.36269 -7.1951 0.10662
0.36269 -7.1951 2.0087
0.36269 -8.0041 0.24866
0.36269 -8.0041 1.8667
0.36269 -6.8861 0.24866
0.36269 -6.8861 1.8667
0.38789 -7.4451 0.069992
0.38789 -7.4451 2.0454
0.39555 -7.4935 0.069992
0.39555 -7.4935 2.0454
0.39555 -7.3968 0.069992
0.39555 -7.3968 2.0454
0.40403 -7.8769 0.16667
0.40403 -7.8769 1.9487
0.40403 -7.0134 0.16667
0.40403 -7.0134 1.9487
0.41777 -7.5371 0.069992
0.41777 -7.5371 2.0454
0.41777 -7.3532 0.069992
0.41777 -7.3532 2.0454
0.44883 -7.739 0.10662
0.44883 -7.739 2.0087
0.44883 -7.1512 0.10662
0.44883 -7.1512 2.0087
0.45238 -7.5717 0.069992
0.45238 -7.5717 2.0454
0.45238 -7.3186 0.069992
0.45238 -7.3186 2.0454
0.49598 -7.5939 0.069992
0.49598 -7.5939 2.0454
0.49598 -7.2963 0.069992
0.49598 -7.2963 2.0454
0.54433 -7.4451 0.057681
0.54433 -7.4451 2.0577
0.54433 -7.6016 0.069992
0.54433 -7.6016 2.0454
0.54433 -7.2887 0.069992
0.54433 -7.2887 2.0454
0.54433 -7.7541 0.10662
0.54433 -7.7541 2.0087
0.54433 -7.1361 0.10662
0.54433 -7.1361 2.0087
0.54433 -7.8991 0.16667
0.54433 -7.8991 1.9487
0.54433 -6.9911 0.16667
0.54433 -6.9911 1.9487
0.54433 -8.0329 0.24866
0.54433 -8.0329 1.8667
0.54433 -6.8573 0.24866
0.54433 -6.8573 1.8667
0.54433 -8.1522 0.35057
0.54433 -8.1522 1.7648
0.54433 -6.738 0.35057
0.54433 -6.738 1.7648
0.54433 -8.2541 0.4699
0.54433 -8.2541 1.6455
0.54433 -6.6361 0.4699
0.54433 -6.6361 1.6455
0.54433 -8.3361 0.60369
0.54433 -8.3361 1.5117
0.54433 -6.5541 0.60369
0.54433 -6.5541 1.5117
0.54433 -8.3962 0.74866
0.54433 -8.3962 1.3667
0.54433 -6.4941 0.74866
0.54433 -6.4941 1.3667
0.54433 -8.4328 0.90125
0.54433 -8.4328 1.2141
0.54433 -6.4574 0.90125
0.54433 -6.4574 1.2141
0.54433 -8.4451 1.0577
0.54433 -6.4451 1.0577
0.59267 -7.5939 0.069992
0.59267 -7.5939 2.0454
0.59267 -7.2963 0.069992
0.59267 -7.2963 2.0454
0.63627 -7.5717 0.069992
0.63627 -7.5717 2.0454
0.63627 -7.3186 0.069992
0.63627 -7.3186 2.0454
0.63982 -7.739 0.10662
0.63982 -7.739 2.0087
0.63982 -7.1512 0.10662
0.63982 -7.1512 2.0087
0.67088 -7.5371 0.069992
0.67088 -7.5371 2.0454
0.67088 -7.3532 0.069992
0.67088 -7.3532 2.0454
0.68462 -7.8769 0.16667
0.68462 -7.8769 1.9487
0.68462 -7.0134 0.16667
0.68462 -7.0134 1.9487
0.6931 -7.4935 0.069992
0.6931 -7.4935 2.0454
0.6931 -7.3968 0.069992
0.6931 -7.3968 2.0454
0.70076 -7.4451 0.069992
0.70076 -7.4451 2.0454
0.72596 -8.0041 0.24866
0.72596 -8.0041 1.8667
0.72596 -7.6951 0.10662
0.72596 -7.6951 2.0087
0.72596 -7.1951 0.10662
0.72596 -7.1951 2.0087
0.72596 -6.8861 0.24866
0.72596 -6.8861 1.8667
0.76283 -8.1176 0.35057
0.76283 -8.1176 1.7648
0.76283 -6.7726 0.35057
0.76283 -6.7726 1.7648
0.79433 -8.2145 0.4699
0.79433 -8.2145 1.6455
0.79433 -7.6268 0.10662
0.79433 -7.6268 2.0087
0.79433 -7.2635 0.10662
0.79433 -7.2635 2.0087
0.79433 -6.6757 0.4699
0.79433 -6.6757 1.6455
0.81117 -7.8124 0.16667
0.81117 -7.8124 1.9487
0.81117 -7.0778 0.16667
0.81117 -7.0778 1.9487
0.81966 -8.2925 0.60369
0.81966 -8.2925 1.5117
0.81966 -6.5977 0.60369
0.81966 -6.5977 1.5117
0.83822 -8.3496 0.74866
0.83822 -8.3496 1.3667
0.83822 -7.5406 0.10662
0.83822 -7.5406 2.0087
0.83822 -7.3496 0.10662
0.83822 -7.3496 2.0087
0.83822 -6.5406 0.74866
0.83822 -6.5406 1.3667
0.84954 -8.3845 0.90125
0.84954 -8.3845 1.2141
0.84954 -6.5058 0.90125
0.84954 -6.5058 1.2141
0.85334 -8.3962 1.0577
0.85334 -7.4451 0.10662
0.85334 -7.4451 2.0087
0.85334 -6.4941 1.0577
0.88982 -7.9207 0.24866
0.88982 -7.9207 1.8667
0.88982 -6.9696 0.24866
0.88982 -6.9696 1.8667
0.91161 -7.712 0.16667
0.91161 -7.712 1.9487
0.91161 -7.1783 0.16667
0.91161 -7.1783 1.9487
0.95995 -8.0172 0.35057
0.95995 -8.0172 1.7648
0.95995 -6.8731 0.35057
0.95995 -6.8731 1.7648
0.9761 -7.5854 0.16667
0.9761 -7.5854 1.9487
0.9761 -7.3048 0.16667
0.9761 -7.3048 1.9487
0.99832 -7.4451 0.16667
0.99832 -7.4451 1.9487
1.0199 -8.0996 0.4699
1.0199 -8.0996 1.6455
1.0199 -7.7906 0.24866
1.0199 -7.7906 1.8667
1.0199 -7.0996 0.24866
1.0199 -7.0996 1.8667
1.0199 -6.7906 0.4699
1.0199 -6.7906 1.6455
1.068 -8.166 0.60369
1.068 -8.166 1.5117
1.068 -6.7243 0.60369
1.068 -6.7243 1.5117
1.1033 -8.2145 0.74866
1.1033 -8.2145 1.3667
1.1033 -7.6268 0.24866
1.1033 -7.6268 1.8667
1.1033 -7.2635 0.24866
1.1033 -7.2635 1.8667
1.1033 -6.6757 0.74866
1.1033 -6.6757 1.3667
1.1164 -7.8608 0.35057
1.1164 -7.8608 1.7648
1.1164 -7.0295 0.35057
1.1164 -7.0295 1.7648
1.1249 -8.2442 0.90125
1.1249 -8.2442 1.2141
1.1249 -6.6461 0.90125
1.1249 -6.6461 1.2141
1.1321 -8.2541 1.0577
1.1321 -7.4451 0.24866
1.1321 -7.4451 1.8667
1.1321 -6.6361 1.0577
1.1988 -7.9207 0.4699
1.1988 -7.9207 1.6455
1.1988 -6.9696 0.4699
1.1988 -6.9696 1.6455
1.2168 -7.6636 0.35057
1.2168 -7.6636 1.7648
1.2168 -7.2266 0.35057
1.2168 -7.2266 1.7648
1.2514 -7.4451 0.35057
1.2514 -7.4451 1.7648
1.2652 -7.9688 0.60369
1.2652 -7.9688 1.5117
1.2652 -6.9214 0.60369
1.2652 -6.9214 1.5117
1.3137 -8.0041 0.74866
1.3137 -8.0041 1.3667
1.3137 -7.6951 0.4699
1.3137 -7.6951 1.6455
1.3137 -7.1951 0.4699
1.3137 -7.1951 1.6455
1.3137 -6.8861 0.74866
1.3137 -6.8861 1.3667
1.3434 -8.0257 0.90125
1.3434 -8.0257 1.2141
1.3434 -6.8646 0.90125
1.3434 -6.8646 1.2141
1.3533 -8.0329 1.0577
1.3533 -7.4451 0.4699
1.3533 -7.4451 1.6455
1.3533 -6.8573 1.0577
1.3917 -7.7205 0.60369
1.3917 -7.7205 1.5117
1.3917 -7.1698 0.60369
1.3917 -7.1698 1.5117
1.4353 -7.4451 0.60369
1.4353 -7.4451 1.5117
1.4488 -7.739 0.74866
1.4488 -7.739 1.3667
1.4488 -7.1512 0.74866
1.4488 -7.1512 1.3667
1.4837 -7.7503 0.90125
1.4837 -7.7503 1.2141
1.4837 -7.1399 0.90125
1.4837 -7.1399 1.2141
1.4954 -7.7541 1.0577
1.4954 -7.4451 0.74866
1.4954 -7.4451 1.3667
1.4954 -7.1361 1.0577
1.532 -7.4451 0.90125
1.532 -7.4451 1.2141
1.5443 -7.4451 1.0577
-10 -10 -0.073763
-10 -9.7 -0.10459
-10 -9.4 -0.11392
-10 -9.1 -0.10093
-10 -8.8 -0.066768
-10 -8.5 -0.014498
-10 -8.2 0.051217
-10 -7.9 0.1245
-10 -7.6 0.19882
-10 -7.3 0.26752
-10 -7 0.32448
-10 -6.7 0.3646
-10 -6.4 0.3843
-10 -6.1 0.38182
-10 -5.8 0.35739
-10 -5.5 0.31317
-10 -5.2 0.25313
-10 -4.9 0.18263
-10 -4.6 0.10797
-10 -4.3 0.035805
-10 -4 -0.027406
-10 -3.7 -0.07602
-10 -3.4 -0.10569
-10 -3.1 -0.11378
-10 -2.8 -0.09955
-10 -2.5 -0.064281
-10 -2.2 -0.01112
-10 -1.9 0.055183
-10 -1.6 0.12871
-10 -1.3 0.20288
-10 -1 0.27108
-10 -0.7 0.32722
-10 -0.4 0.36627
-10 -0.1 0.38476
-10 0.2 0.38102
-10 0.5 0.3554
-10 0.8 0.31018
-10 1.1 0.2494
-10 1.4 0.1785
-10 1.7 0.10379
-10 2 0.031969
-10 2.3 -0.030564
-10 2.6 -0.078217
-10 2.9 -0.10673
-10 3.2 -0.11357
-10 3.5 -0.098109
-10 3.8 -0.061737
-10 4.1 -0.0077007
-10 4.4 0.059172
-10 4.7 0.13291
-10 5 0.20692
-10 5.3 0.2746
-10 5.6 0.3299
-10 5.9 0.36787
-10 6.2 0.38514
-10 6.5 0.38015
-10 6.8 0.35335
-10 7.1 0.30714
-10 7.4 0.24564
-10 7.7 0.17435
-10 8 0.09963
-10 8.3 0.028161
-10 8.6 -0.033675
-10 8.9 -0.080354
-10 9.2 -0.10771
-10 9.5 -0.11329
-10 9.8 -0.096601
-9.7 -10 -0.14183
-9.7 -9.7 -0.17265
-9.7 -9.4 -0.18198
-9.7 -9.1 -0.16899
-9.7 -8.8 -0.13483
-9.7 -8.5 -0.082563
-9.7 -8.2 -0.016849
-9.7 -7.9 0.05644
-9.7 -7.6 0.13076
-9.7 -7.3 0.19946
-9.7 -7 0.25642
-9.7 -6.7 0.29654
-9.7 -6.4 0.31624
-9.7 -6.1 0.31376
-9.7 -5.8 0.28932
-9.7 -5.5 0.24511
-9.7 -5.2 0.18507
-9.7 -4.9 0.11457
-9.7 -4.6 0.039902
-9.7 -4.3 -0.03226
-9.7 -4 -0.095471
-9.7 -3.7 -0.14408
-9.7 -3.4 -0.17376
-9.7 -3.1 -0.18184
-9.7 -2.8 -0.16762
-9.7 -2.5 -0.13235
-9.7 -2.2 -0.079185
-9.7 -1.9 -0.012882
-9.7 -1.6 0.06064
-9.7 -1.3 0.13481
-9.7 -1 0.20302
-9.7 -0.7 0.25915
-9.7 -0.4 0.29821
-9.7 -0.1 0.31669
-9.7 0.2 0.31296
-9.7 0.5 0.28734
-9.7 0.8 0.24212
-9.7 1.1 0.18134
-9.7 1.4 0.11043
-9.7 1.7 0.035729
-9.7 2 -0.036097
-9.7 2.3 -0.098629
-9.7 2.6 -0.14628
-9.7 2.9 -0.1748
-9.7 3.2 -0.18163
-9.7 3.5 -0.16617
-9.7 3.8 -0.1298
-9.7 4.1 -0.075766
-9.7 4.4 -0.0088931
-9.7 4.7 0.064843
-9.7 5 0.13886
-9.7 5.3 0.20653
-9.7 5.6 0.26183
-9.7 5.9 0.29981
-9.7 6.2 0.31708
-9.7 6.5 0.31209
-9.7 6.8 0.28529
-9.7 7.1 0.23908
-9.7 7.4 0.17758
-9.7 7.7 0.10628
-9.7 8 0.031565
-9.7 8.3 -0.039904
-9.7 8.6 -0.10174
-9.7 8.9 -0.14842
-9.7 9.2 -0.17577
-9.7 9.5 -0.18135
-9.7 9.8 -0.16467
-9.4 -10 -0.21596
-9.4 -9.7 -0.24679
-9.4 -9.4 -0.25612
-9.4 -9.1 -0.24312
-9.4 -8.8 -0.20897
-9.4 -8.5 -0.1567
-9.4 -8.2 -0.090983
-9.4 -7.9 -0.017694
-9.4 -7.6 0.056621
-9.4 -7.3 0.12533
-9.4 -7 0.18228
-9.4 -6.7 0.2224
-9.4 -6.4 0.2421
-9.4 -6.1 0.23962
-9.4 -5.8 0.21519
-9.4 -5.5 0.17097
-9.4 -5.2 0.11094
-9.4 -4.9 0.040434
-9.4 -4.6 -0.034232
-9.4 -4.3 -0.10639
-9.4 -4 -0.1696
-9.4 -3.7 -0.21822
-9.4 -3.4 -0.24789
-9.4 -3.1 -0.25598
-9.4 -2.8 -0.24175
-9.4 -2.5 -0.20648
-9.4 -2.2 -0.15332
-9.4 -1.9 -0.087016
-9.4 -1.6 -0.013494
-9.4 -1.3 0.060681
-9.4 -1 0.12888
-9.4 -0.7 0.18502
-9.4 -0.4 0.22407
-9.4 -0.1 0.24256
-9.4 0.2 0.23882
-9.4 0.5 0.2132
-9.4 0.8 0.16798
-9.4 1.1 0.10721
-9.4 1.4 0.036298
-9.4 1.7 -0.038405
-9.4 2 -0.11023
-9.4 2.3 -0.17276
-9.4 2.6 -0.22042
-9.4 2.9 -0.24893
-9.4 3.2 -0.25577
-9.4 3.5 -0.24031
-9.4 3.8 -0.20394
-9.4 4.1 -0.1499
-9.4 4.4 -0.083027
-9.4 4.7 -0.009291
-9.4 5 0.064722
-9.4 5.3 0.1324
-9.4 5.6 0.1877
-9.4 5.9 0.22568
-9.4 6.2 0.24294
-9.4 6.5 0.23795
-9.4 6.8 0.21116
-9.4 7.1 0.16494
-9.4 7.4 0.10344
-9.4 7.7 0.03215
-9.4 8 -0.042569
-9.4 8.3 -0.11404
-9.4 8.6 -0.17587
-9.4 8.9 -0.22255
-9.4 9.2 -0.2499
-9.4 9.5 -0.25549
-9.4 9.8 -0.2388
-9.1 -10 -0.28954
-9.1 -9.7 -0.32037
-9.1 -9.4 -0.3297
-9.1 -9.1 -0.3167
-9.1 -8.8 -0.28255
-9.1 -8.5 -0.23028
-9.1 -8.2 -0.16456
-9.1 -7.9 -0.091275
-9.1 -7.6 -0.01696
-9.1 -7.3 0.051745
-9.1 -7 0.1087
-9.1 -6.7 0.14882
-9.1 -6.4 0.16852
-9.1 -6.1 0.16604
-9.1 -5.8 0.14161
-9.1 -5.5 0.097393
-9.1 -5.2 0.037355
-9.1 -4.9 -0.033146
-9.1 -4.6 -0.10781
-9.1 -4.3 -0.17997
-9.1 -4 -0.24319
-9.1 -3.7 -0.2918
-9.1 -3.4 -0.32147
-9.1 -3.1 -0.32956
-9.1 -2.8 -0.31533
-9.1 -2.5 -0.28006
-9.1 -2.2 -0.2269
-9.1 -1.9 -0.1606
-9.1 -1.6 -0.087074
-9.1 -1.3 -0.0129
-9.1 -1 0.055301
-9.1 -0.7 0.11144
-9.1 -0.4 0.15049
-9.1 -0.1 0.16898
-9.1 0.2 0.16524
-9.1 0.5 0.13962
-9.1 0.8 0.094402
-9.1 1.1 0.033624
-9.1 1.4 -0.037283
-9.1 1.7 -0.11199
-9.1 2 -0.18381
-9.1 2.3 -0.24634
-9.1 2.6 -0.294
-9.1 2.9 -0.32251
-9.1 3.2 -0.32935
-9.1 3.5 -0.31389
-9.1 3.8 -0.27752
-9.1 4.1 -0.22348
-9.1 4.4 -0.15661
-9.1 4.7 -0.082872
-9.1 5 -0.008859
-9.1 5.3 0.058819
-9.1 5.6 0.11412
-9.1 5.9 0.1521
-9.1 6.2 0.16936
-9.1 6.5 0.16437
-9.1 6.8 0.13757
-9.1 7.1 0.091362
-9.1 7.4 0.029862
-9.1 7.7 -0.041431
-9.1 8 -0.11615
-9.1 8.3 -0.18762
-9.1 8.6 -0.24945
-9.1 8.9 -0.29613
-9.1 9.2 -0.32349
-9.1 9.5 -0.32907
-9.1 9.8 -0.31238
-8.8 -10 -0.356
-8.8 -9.7 -0.38682
-8.8 -9.4 -0.39615
-8.8 -9.1 -0.38316
-8.8 -8.8 -0.349
-8.8 -8.5 -0.29673
-8.8 -8.2 -0.23102
-8.8 -7.9 -0.15773
-8.8 -7.6 -0.083414
-8.8 -7.3 -0.01471
-8.8 -7 0.042246
-8.8 -6.7 0.082366
-8.8 -6.4 0.10207
-8.8 -6.1 0.099588
-8.8 -5.8 0.075151
-8.8 -5.5 0.030938
-8.8 -5.2 -0.0291
-8.8 -4.9 -0.099601
-8.8 -4.6 -0.17427
-8.8 -4.3 -0.24643
-8.8 -4 -0.30964
-8.8 -3.7 -0.35825
-8.8 -3.4 -0.38793
-8.8 -3.1 -0.39601
-8.8 -2.8 -0.38178
-8.8 -2.5 -0.34652
-8.8 -2.2 -0.29335
-8.8 -1.9 -0.22705
-8.8 -1.6 -0.15353
-8.8 -1.3 -0.079355
-8.8 -1 -0.011154
-8.8 -0.7 0.044981
-8.8 -0.4 0.084036
-8.8 -0.1 0.10252
-8.8 0.2 0.098787
-8.8 0.5 0.073166
-8.8 0.8 0.027947
-8.8 1.1 -0.03283
-8.8 1.4 -0.10374
-8.8 1.7 -0.17844
-8.8 2 -0.25027
-8.8 2.3 -0.3128
-8.8 2.6 -0.36045
-8.8 2.9 -0.38897
-8.8 3.2 -0.3958
-8.8 3.5 -0.38034
-8.8 3.8 -0.34397
-8.8 4.1 -0.28994
-8.8 4.4 -0.22306
-8.8 4.7 -0.14933
-8.8 5 -0.075314
-8.8 5.3 -0.0076357
-8.8 5.6 0.047662
-8.8 5.9 0.08564
-8.8 6.2 0.10291
-8.8 6.5 0.097918
-8.8 6.8 0.07112
-8.8 7.1 0.024907
-8.8 7.4 -0.036592
-8.8 7.7 -0.10789
-8.8 8 -0.1826
-8.8 8.3 -0.25407
-8.8 8.6 -0.31591
-8.8 8.9 -0.36259
-8.8 9.2 -0.38994
-8.8 9.5 -0.39552
-8.8 9.8 -0.37884
-8.5 -10 -0.40939
-8.5 -9.7 -0.44021
-8.5 -9.4 -0.44955
-8.5 -9.1 -0.43655
-8.5 -8.8 -0.4024
-8.5 -8.5 -0.35012
-8.5 -8.2 -0.28441
-8.5 -7.9 -0.21112
-8.5 -7.6 -0.13681
-8.5 -7.3 -0.068102
-8.5 -7 -0.011146
-8.5 -6.7 0.028974
-8.5 -6.4 0.048674
-8.5 -6.1 0.046195
-8.5 -5.8 0.021758
-8.5 -5.5 -0.022454
-8.5 -5.2 -0.082493
-8.5 -4.9 -0.15299
-8.5 -4.6 -0.22766
-8.5 -4.3 -0.29982
-8.5 -4 -0.36303
-8.5 -3.7 -0.41165
-8.5 -3.4 -0.44132
-8.5 -3.1 -0.44941
-8.5 -2.8 -0.43518
-8.5 -2.5 -0.39991
-8.5 -2.2 -0.34675
-8.5 -1.9 -0.28044
-8.5 -1.6 -0.20692
-8.5 -1.3 -0.13275
-8.5 -1 -0.064546
-8.5 -0.7 -0.0084112
-8.5 -0.4 0.030643
-8.5 -0.1 0.049129
-8.5 0.2 0.045395
-8.5 0.5 0.019774
-8.5 0.8 -0.025445
-8.5 1.1 -0.086223
-8.5 1.4 -0.15713
-8.5 1.7 -0.23183
-8.5 2 -0.30366
-8.5 2.3 -0.36619
-8.5 2.6 -0.41384
-8.5 2.9 -0.44236
-8.5 3.2 -0.4492
-8.5 3.5 -0.43374
-8.5 3.8 -0.39736
-8.5 4.1 -0.34333
-8.5 4.4 -0.27645
-8.5 4.7 -0.20272
-8.5 5 -0.12871
-8.5 5.3 -0.061028
-8.5 5.6 -0.0057303
-8.5 5.9 0.032248
-8.5 6.2 0.049514
-8.5 6.5 0.044525
-8.5 6.8 0.017728
-8.5 7.1 -0.028485
-8.5 7.4 -0.089985
-8.5 7.7 -0.16128
-8.5 8 -0.236
-8.5 8.3 -0.30747
-8.5 8.6 -0.3693
-8.5 8.9 -0.41598
-8.5 9.2 -0.44333
-8.5 9.5 -0.44891
-8.5 9.8 -0.43223
-8.2 -10 -0.44495
-8.2 -9.7 -0.47577
-8.2 -9.4 -0.48511
-8.2 -9.1 -0.47211
-8.2 -8.8 -0.43796
-8.2 -8.5 -0.38569
-8.2 -8.2 -0.31997
-8.2 -7.9 -0.24668
-8.2 -7.6 -0.17237
-8.2 -7.3 -0.10366
-8.2 -7 -0.046707
-8.2 -6.7 -0.0065869
-8.2 -6.4 0.013114
-8.2 -6.1 0.010634
-8.2 -5.8 -0.013803
-8.2 -5.5 -0.058015
-8.2 -5.2 -0.11805
-8.2 -4.9 -0.18855
-8.2 -4.6 -0.26322
-8.2 -4.3 -0.33538
-8.2 -4 -0.39859
-8.2 -3.7 -0.44721
-8.2 -3.4 -0.47688
-8.2 -3.1 -0.48497
-8.2 -2.8 -0.47074
-8.2 -2.5 -0.43547
-8.2 -2.2 -0.38231
-8.2 -1.9 -0.31601
-8.2 -1.6 -0.24248
-8.2 -1.3 -0.16831
-8.2 -1 -0.10011
-8.2 -0.7 -0.043972
-8.2 -0.4 -0.0049174
-8.2 -0.1 0.013568
-8.2 0.2 0.009834
-8.2 0.5 -0.015787
-8.2 0.8 -0.061006
-8.2 1.1 -0.12178
-8.2 1.4 -0.19269
-8.2 1.7 -0.26739
-8.2 2 -0.33922
-8.2 2.3 -0.40175
-8.2 2.6 -0.4494
-8.2 2.9 -0.47792
-8.2 3.2 -0.48476
-8.2 3.5 -0.4693
-8.2 3.8 -0.43292
-8.2 4.1 -0.37889
-8.2 4.4 -0.31202
-8.2 4.7 -0.23828
-8.2 5 -0.16427
-8.2 5.3 -0.096589
-8.2 5.6 -0.041291
-8.2 5.9 -0.003313
-8.2 6.2 0.013953
-8.2 6.5 0.0089643
-8.2 6.8 -0.017833
-8.2 7.1 -0.064046
-8.2 7.4 -0.12555
-8.2 7.7 -0.19684
-8.2 8 -0.27156
-8.2 8.3 -0.34303
-8.2 8.6 -0.40486
-8.2 8.9 -0.45154
-8.2 9.2 -0.47889
-8.2 9.5 -0.48448
-8.2 9.8 -0.46779
-7.9 -10 -0.4595
-7.9 -9.7 -0.49033
-7.9 -9.4 -0.49966
-7.9 -9.1 -0.48667
-7.9 -8.8 -0.45251
-7.9 -8.5 -0.40024
-7.9 -8.2 -0.33452
-7.9 -7.9 -0.26124
-7.9 -7.6 -0.18692
-7.9 -7.3 -0.11822
-7.9 -7 -0.06126
-7.9 -6.7 -0.02114
-7.9 -6.4 -0.0014391
-7.9 -6.1 -0.0039182
-7.9 -5.8 -0.028355
-7.9 -5.5 -0.072568
-7.9 -5.2 -0.13261
-7.9 -4.9 -0.20311
-7.9 -4.6 -0.27777
-7.9 -4.3 -0.34994
-7.9 -4 -0.41315
-7.9 -3.7 -0.46176
-7.9 -3.4 -0.49143
-7.9 -3.1 -0.49952
-7.9 -2.8 -0.48529
-7.9 -2.5 -0.45002
-7.9 -2.2 -0.39686
-7.9 -1.9 -0.33056
-7.9 -1.6 -0.25704
-7.9 -1.3 -0.18286
-7.9 -1 -0.11466
-7.9 -0.7 -0.058525
-7.9 -0.4 -0.01947
-7.9 -0.1 -0.00098429
-7.9 0.2 -0.0047187
-7.9 0.5 -0.03034
-7.9 0.8 -0.075559
-7.9 1.1 -0.13634
-7.9 1.4 -0.20724
-7.9 1.7 -0.28195
-7.9 2 -0.35377
-7.9 2.3 -0.4163
-7.9 2.6 -0.46396
-7.9 2.9 -0.49247
-7.9 3.2 -0.49931
-7.9 3.5 -0.48385
-7.9 3.8 -0.44748
-7.9 4.1 -0.39344
-7.9 4.4 -0.32657
-7.9 4.7 -0.25283
-7.9 5 -0.17882
-7.9 5.3 -0.11114
-7.9 5.6 -0.055844
-7.9 5.9 -0.017866
-7.9 6.2 -0.00059981
-7.9 6.5 -0.0055884
-7.9 6.8 -0.032386
-7.9 7.1 -0.078599
-7.9 7.4 -0.1401
-7.9 7.7 -0.21139
-7.9 8 -0.28611
-7.9 8.3 -0.35758
-7.9 8.6 -0.41942
-7.9 8.9 -0.46609
-7.9 9.2 -0.49345
-7.9 9.5 -0.49903
-7.9 9.8 -0.48234
-7.6 -10 -0.45175
-7.6 -9.7 -0.48257
-7.6 -9.4 -0.4919
-7.6 -9.1 -0.47891
-7.6 -8.8 -0.44475
-7.6 -8.5 -0.39248
-7.6 -8.2 -0.32677
-7.6 -7.9 -0.25348
-7.6 -7.6 -0.17916
-7.6 -7.3 -0.11046
-7.6 -7 -0.053504
-7.6 -6.7 -0.013384
-7.6 -6.4 0.0063163
-7.6 -6.1 0.0038372
-7.6 -5.8 -0.0206
-7.6 -5.5 -0.064812
-7.6 -5.2 -0.12485
-7.6 -4.9 -0.19535
-7.6 -4.6 -0.27002
-7.6 -4.3 -0.34218
-7.6 -4 -0.40539
-7.6 -3.7 -0.454
-7.6 -3.4 -0.48368
-7.6 -3.1 -0.49176
-7.6 -2.8 -0.47754
-7.6 -2.5 -0.44227
-7.6 -2.2 -0.38911
-7.6 -1.9 -0.3228
-7.6 -1.6 -0.24928
-7.6 -1.3 -0.17511
-7.6 -1 -0.1069
-7.6 -0.7 -0.050769
-7.6 -0.4 -0.011715
-7.6 -0.1 0.0067711
-7.6 0.2 0.0030367
-7.6 0.5 -0.022584
-7.6 0.8 -0.067803
-7.6 1.1 -0.12858
-7.6 1.4 -0.19949
-7.6 1.7 -0.27419
-7.6 2 -0.34602
-7.6 2.3 -0.40855
-7.6 2.6 -0.4562
-7.6 2.9 -0.48472
-7.6 3.2 -0.49155
-7.6 3.5 -0.47609
-7.6 3.8 -0.43972
-7.6 4.1 -0.38569
-7.6 4.4 -0.31881
-7.6 4.7 -0.24508
-7.6 5 -0.17106
-7.6 5.3 -0.10339
-7.6 5.6 -0.048088
-7.6 5.9 -0.01011
-7.6 6.2 0.0071556
-7.6 6.5 0.002167
-7.6 6.8 -0.024631
-7.6 7.1 -0.070843
-7.6 7.4 -0.13234
-7.6 7.7 -0.20364
-7.6 8 -0.27835
-7.6 8.3 -0.34982
-7.6 8.6 -0.41166
-7.6 8.9 -0.45834
-7.6 9.2 -0.48569
-7.6 9.5 -0.49127
-7.6 9.8 -0.47459
-7.3 -10 -0.42238
-7.3 -9.7 -0.4532
-7.3 -9.4 -0.46253
-7.3 -9.1 -0.44954
-7.3 -8.8 -0.41538
-7.3 -8.5 -0.36311
-7.3 -8.2 -0.2974
-7.3 -7.9 -0.22411
-7.3 -7.6 -0.14979
-7.3 -7.3 -0.08109
-7.3 -7 -0.024134
-7.3 -6.7 0.015987
-7.3 -6.4 0.035687
-7.3 -6.1 0.033208
-7.3 -5.8 0.0087707
-7.3 -5.5 -0.035442
-7.3 -5.2 -0.09548
-7.3 -4.9 -0.16598
-7.3 -4.6 -0.24065
-7.3 -4.3 -0.31281
-7.3 -4 -0.37602
-7.3 -3.7 -0.42463
-7.3 -3.4 -0.45431
-7.3 -3.1 -0.46239
-7.3 -2.8 -0.44816
-7.3 -2.5 -0.4129
-7.3 -2.2 -0.35973
-7.3 -1.9 -0.29343
-7.3 -1.6 -0.21991
-7.3 -1.3 -0.14573
-7.3 -1 -0.077534
-7.3 -0.7 -0.021399
-7.3 -0.4 0.017656
-7.3 -0.1 0.036142
-7.3 0.2 0.032407
-7.3 0.5 0.0067865
-7.3 0.8 -0.038432
-7.3 1.1 -0.09921
-7.3 1.4 -0.17012
-7.3 1.7 -0.24482
-7.3 2 -0.31665
-7.3 2.3 -0.37918
-7.3 2.6 -0.42683
-7.3 2.9 -0.45535
-7.3 3.2 -0.46218
-7.3 3.5 -0.44672
-7.3 3.8 -0.41035
-7.3 4.1 -0.35632
-7.3 4.4 -0.28944
-7.3 4.7 -0.21571
-7.3 5 -0.14169
-7.3 5.3 -0.074016
-7.3 5.6 -0.018718
-7.3 5.9 0.01926
-7.3 6.2 0.036526
-7.3 6.5 0.031538
-7.3 6.8 0.0047402
-7.3 7.1 -0.041472
-7.3 7.4 -0.10297
-7.3 7.7 -0.17427
-7.3 8 -0.24898
-7.3 8.3 -0.32045
-7.3 8.6 -0.38229
-7.3 8.9 -0.42897
-7.3 9.2 -0.45632
-7.3 9.5 -0.4619
-7.3 9.8 -0.44522
-7 -10 -0.37401
-7 -9.7 -0.40484
-7 -9.4 -0.41417
-7 -9.1 -0.40118
-7 -8.8 -0.36702
-7 -8.5 -0.31475
-7 -8.2 -0.24904
-7 -7.9 -0.17575
-7 -7.6 -0.10143
-7 -7.3 -0.032727
-7 -7 0.024229
-7 -6.7 0.064349
-7 -6.4 0.08405
-7 -6.1 0.08157
-7 -5.8 0.057133
-7 -5.5 0.012921
-7 -5.2 -0.047117
-7 -4.9 -0.11762
-7 -4.6 -0.19228
-7 -4.3 -0.26445
-7 -4 -0.32766
-7 -3.7 -0.37627
-7 -3.4 -0.40595
-7 -3.1 -0.41403
-7 -2.8 -0.3998
-7 -2.5 -0.36453
-7 -2.2 -0.31137
-7 -1.9 -0.24507
-7 -1.6 -0.17155
-7 -1.3 -0.097372
-7 -1 -0.029171
-7 -0.7 0.026964
-7 -0.4 0.066019
-7 -0.1 0.084504
-7 0.2 0.08077
-7 0.5 0.055149
-7 0.8 0.00993
-7 1.1 -0.050848
-7 1.4 -0.12175
-7 1.7 -0.19646
-7 2 -0.26828
-7 2.3 -0.33082
-7 2.6 -0.37847
-7 2.9 -0.40699
-7 3.2 -0.41382
-7 3.5 -0.39836
-7 3.8 -0.36199
-7 4.1 -0.30795
-7 4.4 -0.24108
-7 4.7 -0.16734
-7 5 -0.093331
-7 5.3 -0.025653
-7 5.6 0.029645
-7 5.9 0.067623
-7 6.2 0.084889
-7 6.5 0.0799
-7 6.8 0.053103
-7 7.1 0.00689
-7 7.4 -0.05461
-7 7.7 -0.1259
-7 8 -0.20062
-7 8.3 -0.27209
-7 8.6 -0.33393
-7 8.9 -0.38061
-7 9.2 -0.40796
-7 9.5 -0.41354
-7 9.8 -0.39685
-6.7 -10 -0.31098
-6.7 -9.7 -0.3418
-6.7 -9.4 -0.35114
-6.7 -9.1 -0.33814
-6.7 -8.8 -0.30399
-6.7 -8.5 -0.25172
-6.7 -8.2 -0.186
-6.7 -7.9 -0.11271
-6.7 -7.6 -0.038398
-6.7 -7.3 0.030307
-6.7 -7 0.087263
-6.7 -6.7 0.12738
-6.7 -6.4 0.14708
-6.7 -6.1 0.1446
-6.7 -5.8 0.12017
-6.7 -5.5 0.075955
-6.7 -5.2 0.015917
-6.7 -4.9 -0.054584
-6.7 -4.6 -0.12925
-6.7 -4.3 -0.20141
-6.7 -4 -0.26462
-6.7 -3.7 -0.31324
-6.7 -3.4 -0.34291
-6.7 -3.1 -0.351
-6.7 -2.8 -0.33677
-6.7 -2.5 -0.3015
-6.7 -2.2 -0.24834
-6.7 -1.9 -0.18203
-6.7 -1.6 -0.10851
-6.7 -1.3 -0.034338
-6.7 -1 0.033863
-6.7 -0.7 0.089998
-6.7 -0.4 0.12905
-6.7 -0.1 0.14754
-6.7 0.2 0.1438
-6.7 0.5 0.11818
-6.7 0.8 0.072964
-6.7 1.1 0.012187
-6.7 1.4 -0.058721
-6.7 1.7 -0.13342
-6.7 2 -0.20525
-6.7 2.3 -0.26778
-6.7 2.6 -0.31543
-6.7 2.9 -0.34395
-6.7 3.2 -0.35079
-6.7 3.5 -0.33533
-6.7 3.8 -0.29895
-6.7 4.1 -0.24492
-6.7 4.4 -0.17805
-6.7 4.7 -0.10431
-6.7 5 -0.030297
-6.7 5.3 0.037381
-6.7 5.6 0.092679
-6.7 5.9 0.13066
-6.7 6.2 0.14792
-6.7 6.5 0.14293
-6.7 6.8 0.11614
-6.7 7.1 0.069924
-6.7 7.4 0.0084244
-6.7 7.7 -0.062869
-6.7 8 -0.13759
-6.7 8.3 -0.20906
-6.7 8.6 -0.27089
-6.7 8.9 -0.31757
-6.7 9.2 -0.34492
-6.7 9.5 -0.35051
-6.7 9.8 -0.33382
-6.4 -10 -0.23891
-6.4 -9.7 -0.26973
-6.4 -9.4 -0.27906
-6.4 -9.1 -0.26607
-6.4 -8.8 -0.23191
-6.4 -8.5 -0.17964
-6.4 -8.2 -0.11393
-6.4 -7.9 -0.040638
-6.4 -7.6 0.033678
-6.4 -7.3 0.10238
-6.4 -7 0.15934
-6.4 -6.7 0.19946
-6.4 -6.4 0.21916
-6.4 -6.1 0.21668
-6.4 -5.8 0.19224
-6.4 -5.5 0.14803
-6.4 -5.2 0.087992
-6.4 -4.9 0.017491
-6.4 -4.6 -0.057175
-6.4 -4.3 -0.12934
-6.4 -4 -0.19255
-6.4 -3.7 -0.24116
-6.4 -3.4 -0.27084
-6.4 -3.1 -0.27892
-6.4 -2.8 -0.26469
-6.4 -2.5 -0.22942
-6.4 -2.2 -0.17626
-6.4 -1.9 -0.10996
-6.4 -1.6 -0.036437
-6.4 -1.3 0.037737
-6.4 -1 0.10594
-6.4 -0.7 0.16207
-6.4 -0.4 0.20113
-6.4 -0.1 0.21961
-6.4 0.2 0.21588
-6.4 0.5 0.19026
-6.4 0.8 0.14504
-6.4 1.1 0.084262
-6.4 1.4 0.013354
-6.4 1.7 -0.061348
-6.4 2 -0.13317
-6.4 2.3 -0.19571
-6.4 2.6 -0.24336
-6.4 2.9 -0.27188
-6.4 3.2 -0.27871
-6.4 3.5 -0.26325
-6.4 3.8 -0.22688
-6.4 4.1 -0.17284
-6.4 4.4 -0.10597
-6.4 4.7 -0.032234
-6.4 5 0.041778
-6.4 5.3 0.10946
-6.4 5.6 0.16475
-6.4 5.9 0.20273
-6.4 6.2 0.22
-6.4 6.5 0.21501
-6.4 6.8 0.18821
-6.4 7.1 0.142
-6.4 7.4 0.0805
-6.4 7.7 0.0092062
-6.4 8 -0.065512
-6.4 8.3 -0.13698
-6.4 8.6 -0.19882
-6.4 8.9 -0.2455
-6.4 9.2 -0.27285
-6.4 9.5 -0.27843
-6.4 9.8 -0.26174
-6.1 -10 -0.16423
-6.1 -9.7 -0.19505
-6.1 -9.4 -0.20438
-6.1 -9.1 -0.19139
-6.1 -8.8 -0.15723
-6.1 -8.5 -0.10496
-6.1 -8.2 -0.039248
-6.1 -7.9 0.03404
-6.1 -7.6 0.10836
-6.1 -7.3 0.17706
-6.1 -7 0.23402
-6.1 -6.7 0.27414
-6.1 -6.4 0.29384
-6.1 -6.1 0.29136
-6.1 -5.8 0.26692
-6.1 -5.5 0.22271
-6.1 -5.2 0.16267
-6.1 -4.9 0.092169
-6.1 -4.6 0.017502
-6.1 -4.3 -0.054659
-6.1 -4 -0.11787
-6.1 -3.7 -0.16648
-6.1 -3.4 -0.19616
-6.1 -3.1 -0.20424
-6.1 -2.8 -0.19001
-6.1 -2.5 -0.15475
-6.1 -2.2 -0.10158
-6.1 -1.9 -0.035282
-6.1 -1.6 0.038241
-6.1 -1.3 0.11242
-6.1 -1 0.18062
-6.1 -0.7 0.23675
-6.1 -0.4 0.27581
-6.1 -0.1 0.29429
-6.1 0.2 0.29056
-6.1 0.5 0.26494
-6.1 0.8 0.21972
-6.1 1.1 0.15894
-6.1 1.4 0.088032
-6.1 1.7 0.01333
-6.1 2 -0.058496
-6.1 2.3 -0.12103
-6.1 2.6 -0.16868
-6.1 2.9 -0.1972
-6.1 3.2 -0.20403
-6.1 3.5 -0.18857
-6.1 3.8 -0.1522
-6.1 4.1 -0.098165
-6.1 4.4 -0.031293
-6.1 4.7 0.042443
-6.1 5 0.11646
-6.1 5.3 0.18413
-6.1 5.6 0.23943
-6.1 5.9 0.27741
-6.1 6.2 0.29468
-6.1 6.5 0.28969
-6.1 6.8 0.26289
-6.1 7.1 0.21668
-6.1 7.4 0.15518
-6.1 7.7 0.083884
-6.1 8 0.0091656
-6.1 8.3 -0.062304
-6.1 8.6 -0.12414
-6.1 8.9 -0.17082
-6.1 9.2 -0.19817
-6.1 9.5 -0.20375
-6.1 9.8 -0.18707
-5.8 -10 -0.093617
-5.8 -9.7 -0.12444
-5.8 -9.4 -0.13377
-5.8 -9.1 -0.12078
-5.8 -8.8 -0.086623
-5.8 -8.5 -0.034352
-5.8 -8.2 0.031362
-5.8 -7.9 0.10465
-5.8 -7.6 0.17897
-5.8 -7.3 0.24767
-5.8 -7 0.30463
-5.8 -6.7 0.34475
-5.8 -6.4 0.36445
-5.8 -6.1 0.36197
-5.8 -5.8 0.33753
-5.8 -5.5 0.29332
-5.8 -5.2 0.23328
-5.8 -4.9 0.16278
-5.8 -4.6 0.088112
-5.8 -4.3 0.015951
-5.8 -4 -0.04726
-5.8 -3.7 -0.095874
-5.8 -3.4 -0.12555
-5.8 -3.1 -0.13363
-5.8 -2.8 -0.11941
-5.8 -2.5 -0.084135
-5.8 -2.2 -0.030975
-5.8 -1.9 0.035328
-5.8 -1.6 0.10885
-5.8 -1.3 0.18303
-5.8 -1 0.25123
-5.8 -0.7 0.30736
-5.8 -0.4 0.34642
-5.8 -0.1 0.3649
-5.8 0.2 0.36117
-5.8 0.5 0.33555
-5.8 0.8 0.29033
-5.8 1.1 0.22955
-5.8 1.4 0.15864
-5.8 1.7 0.083939
-5.8 2 0.012114
-5.8 2.3 -0.050418
-5.8 2.6 -0.098072
-5.8 2.9 -0.12659
-5.8 3.2 -0.13342
-5.8 3.5 -0.11796
-5.8 3.8 -0.081591
-5.8 4.1 -0.027555
-5.8 4.4 0.039317
-5.8 4.7 0.11305
-5.8 5 0.18707
-5.8 5.3 0.25474
-5.8 5.6 0.31004
-5.8 5.9 0.34802
-5.8 6.2 0.36529
-5.8 6.5 0.3603
-5.8 6.8 0.3335
-5.8 7.1 0.28729
-5.8 7.4 0.22579
-5.8 7.7 0.15449
-5.8 8 0.079776
-5.8 8.3 0.0083063
-5.8 8.6 -0.053529
-5.8 8.9 -0.10021
-5.8 9.2 -0.12756
-5.8 9.5 -0.13314
-5.8 9.8 -0.11646
-5.5 -10 -0.033383
-5.5 -9.7 -0.064206
-5.5 -9.4 -0.073538
-5.5 -9.1 -0.060545
-5.5 -8.8 -0.026388
-5.5 -8.5 0.025882
-5.5 -8.2 0.091596
-5.5 -7.9 0.16488
-5.5 -7.6 0.2392
-5.5 -7.3 0.3079
-5.5 -7 0.36486
-5.5 -6.7 0.40498
-5.5 -6.4 0.42468
-5.5 -6.1 0.4222
-5.5 -5.8 0.39776
-5.5 -5.5 0.35355
-5.5 -5.2 0.29351
-5.5 -4.9 0.22301
-5.5 -4.6 0.14835
-5.5 -4.3 0.076185
-5.5 -4 0.012974
-5.5 -3.7 -0.03564
-5.5 -3.4 -0.065314
-5.5 -3.1 -0.073399
-5.5 -2.8 -0.059171
-5.5 -2.5 -0.023901
-5.5 -2.2 0.02926
-5.5 -1.9 0.095563
-5.5 -1.6 0.16909
-5.5 -1.3 0.24326
-5.5 -1 0.31146
-5.5 -0.7 0.3676
-5.5 -0.4 0.40665
-5.5 -0.1 0.42514
-5.5 0.2 0.4214
-5.5 0.5 0.39578
-5.5 0.8 0.35056
-5.5 1.1 0.28978
-5.5 1.4 0.21888
-5.5 1.7 0.14417
-5.5 2 0.072348
-5.5 2.3 0.0098161
-5.5 2.6 -0.037837
-5.5 2.9 -0.066354
-5.5 3.2 -0.073189
-5.5 3.5 -0.057729
-5.5 3.8 -0.021357
-5.5 4.1 0.032679
-5.5 4.4 0.099552
-5.5 4.7 0.17329
-5.5 5 0.2473
-5.5 5.3 0.31498
-5.5 5.6 0.37028
-5.5 5.9 0.40825
-5.5 6.2 0.42552
-5.5 6.5 0.42053
-5.5 6.8 0.39373
-5.5 7.1 0.34752
-5.5 7.4 0.28602
-5.5 7.7 0.21473
-5.5 8 0.14001
-5.5 8.3 0.068541
-5.5 8.6 0.0067051
-5.5 8.9 -0.039974
-5.5 9.2 -0.067326
-5.5 9.5 -0.072908
-5.5 9.8 -0.056221
-5.2 -10 0.011096
-5.2 -9.7 -0.019728
-5.2 -9.4 -0.02906
-5.2 -9.1 -0.016067
-5.2 -8.8 0.01809
-5.2 -8.5 0.070361
-5.2 -8.2 0.13607
-5.2 -7.9 0.20936
-5.2 -7.6 0.28368
-5.2 -7.3 0.35238
-5.2 -7 0.40934
-5.2 -6.7 0.44946
-5.2 -6.4 0.46916
-5.2 -6.1 0.46668
-5.2 -5.8 0.44224
-5.2 -5.5 0.39803
-5.2 -5.2 0.33799
-5.2 -4.9 0.26749
-5.2 -4.6 0.19283
-5.2 -4.3 0.12066
-5.2 -4 0.057453
-5.2 -3.7 0.0088387
-5.2 -3.4 -0.020836
-5.2 -3.1 -0.02892
-5.2 -2.8 -0.014692
-5.2 -2.5 0.020578
-5.2 -2.2 0.073738
-5.2 -1.9 0.14004
-5.2 -1.6 0.21356
-5.2 -1.3 0.28774
-5.2 -1 0.35594
-5.2 -0.7 0.41207
-5.2 -0.4 0.45113
-5.2 -0.1 0.46961
-5.2 0.2 0.46588
-5.2 0.5 0.44026
-5.2 0.8 0.39504
-5.2 1.1 0.33426
-5.2 1.4 0.26336
-5.2 1.7 0.18865
-5.2 2 0.11683
-5.2 2.3 0.054295
-5.2 2.6 0.0066415
-5.2 2.9 -0.021876
-5.2 3.2 -0.02871
-5.2 3.5 -0.013251
-5.2 3.8 0.023122
-5.2 4.1 0.077158
-5.2 4.4 0.14403
-5.2 4.7 0.21777
-5.2 5 0.29178
-5.2 5.3 0.35946
-5.2 5.6 0.41476
-5.2 5.9 0.45273
-5.2 6.2 0.47
-5.2 6.5 0.46501
-5.2 6.8 0.43821
-5.2 7.1 0.392
-5.2 7.4 0.3305
-5.2 7.7 0.25921
-5.2 8 0.18449
-5.2 8.3 0.11302
-5.2 8.6 0.051184
-5.2 8.9 0.0045049
-5.2 9.2 -0.022847
-5.2 9.5 -0.028429
-5.2 9.8 -0.011743
-4.9 -10 0.035845
-4.9 -9.7 0.0050219
-4.9 -9.4 -0.0043101
-4.9 -9.1 0.0086828
-4.9 -8.8 0.04284
-4.9 -8.5 0.09511
-4.9 -8.2 0.16082
-4.9 -7.9 0.23411
-4.9 -7.6 0.30843
-4.9 -7.3 0.37713
-4.9 -7 0.43409
-4.9 -6.7 0.47421
-4.9 -6.4 0.49391
-4.9 -6.1 0.49143
-4.9 -5.8 0.46699
-4.9 -5.5 0.42278
-4.9 -5.2 0.36274
-4.9 -4.9 0.29224
-4.9 -4.6 0.21758
-4.9 -4.3 0.14541
-4.9 -4 0.082202
-4.9 -3.7 0.033588
-4.9 -3.4 0.0039136
-4.9 -3.1 -0.0041706
-4.9 -2.8 0.010058
-4.9 -2.5 0.045327
-4.9 -2.2 0.098488
-4.9 -1.9 0.16479
-4.9 -1.6 0.23831
-4.9 -1.3 0.31249
-4.9 -1 0.38069
-4.9 -0.7 0.43682
-4.9 -0.4 0.47588
-4.9 -0.1 0.49436
-4.9 0.2 0.49063
-4.9 0.5 0.46501
-4.9 0.8 0.41979
-4.9 1.1 0.35901
-4.9 1.4 0.2881
-4.9 1.7 0.2134
-4.9 2 0.14158
-4.9 2.3 0.079044
-4.9 2.6 0.031391
-4.9 2.9 0.0028736
-4.9 3.2 -0.0039605
-4.9 3.5 0.011499
-4.9 3.8 0.047871
-4.9 4.1 0.10191
-4.9 4.4 0.16878
-4.9 4.7 0.24252
-4.9 5 0.31653
-4.9 5.3 0.38421
-4.9 5.6 0.4395
-4.9 5.9 0.47748
-4.9 6.2 0.49475
-4.9 6.5 0.48976
-4.9 6.8 0.46296
-4.9 7.1 0.41675
-4.9 7.4 0.35525
-4.9 7.7 0.28396
-4.9 8 0.20924
-4.9 8.3 0.13777
-4.9 8.6 0.075933
-4.9 8.9 0.029254
-4.9 9.2 0.0019022
-4.9 9.5 -0.0036799
-4.9 9.8 0.013007
-4.6 -10 0.038655
-4.6 -9.7 0.0078315
-4.6 -9.4 -0.0015005
-4.6 -9.1 0.011492
-4.6 -8.8 0.045649
-4.6 -8.5 0.09792
-4.6 -8.2 0.16363
-4.6 -7.9 0.23692
-4.6 -7.6 0.31124
-4.6 -7.3 0.37994
-4.6 -7 0.4369
-4.6 -6.7 0.47702
-4.6 -6.4 0.49672
-4.6 -6.1 0.49424
-4.6 -5.8 0.4698
-4.6 -5.5 0.42559
-4.6 -5.2 0.36555
-4.6 -4.9 0.29505
-4.6 -4.6 0.22038
-4.6 -4.3 0.14822
-4.6 -4 0.085012
-4.6 -3.7 0.036398
-4.6 -3.4 0.0067232
-4.6 -3.1 -0.001361
-4.6 -2.8 0.012867
-4.6 -2.5 0.048137
-4.6 -2.2 0.1013
-4.6 -1.9 0.1676
-4.6 -1.6 0.24112
-4.6 -1.3 0.3153
-4.6 -1 0.3835
-4.6 -0.7 0.43963
-4.6 -0.4 0.47869
-4.6 -0.1 0.49717
-4.6 0.2 0.49344
-4.6 0.5 0.46782
-4.6 0.8 0.4226
-4.6 1.1 0.36182
-4.6 1.4 0.29091
-4.6 1.7 0.21621
-4.6 2 0.14439
-4.6 2.3 0.081854
-4.6 2.6 0.034201
-4.6 2.9 0.0056832
-4.6 3.2 -0.0011509
-4.6 3.5 0.014309
-4.6 3.8 0.050681
-4.6 4.1 0.10472
-4.6 4.4 0.17159
-4.6 4.7 0.24533
-4.6 5 0.31934
-4.6 5.3 0.38702
-4.6 5.6 0.44231
-4.6 5.9 0.48029
-4.6 6.2 0.49756
-4.6 6.5 0.49257
-4.6 6.8 0.46577
-4.6 7.1 0.41956
-4.6 7.4 0.35806
-4.6 7.7 0.28677
-4.6 8 0.21205
-4.6 8.3 0.14058
-4.6 8.6 0.078743
-4.6 8.9 0.032064
-4.6 9.2 0.0047118
-4.6 9.5 -0.00087029
-4.6 9.8 0.015816
-4.3 -10 0.019274
-4.3 -9.7 -0.01155
-4.3 -9.4 -0.020882
-4.3 -9.1 -0.0078889
-4.3 -8.8 0.026268
-4.3 -8.5 0.078539
-4.3 -8.2 0.14425
-4.3 -7.9 0.21754
-4.3 -7.6 0.29186
-4.3 -7.3 0.36056
-4.3 -7 0.41752
-4.3 -6.7 0.45764
-4.3 -6.4 0.47734
-4.3 -6.1 0.47486
-4.3 -5.8 0.45042
-4.3 -5.5 0.40621
-4.3 -5.2 0.34617
-4.3 -4.9 0.27567
-4.3 -4.6 0.201
-4.3 -4.3 0.12884
-4.3 -4 0.065631
-4.3 -3.7 0.017016
-4.3 -3.4 -0.012658
-4.3 -3.1 -0.020742
-4.3 -2.8 -0.0065141
-4.3 -2.5 0.028756
-4.3 -2.2 0.081916
-4.3 -1.9 0.14822
-4.3 -1.6 0.22174
-4.3 -1.3 0.29592
-4.3 -1 0.36412
-4.3 -0.7 0.42025
-4.3 -0.4 0.45931
-4.3 -0.1 0.47779
-4.3 0.2 0.47406
-4.3 0.5 0.44844
-4.3 0.8 0.40322
-4.3 1.1 0.34244
-4.3 1.4 0.27153
-4.3 1.7 0.19683
-4.3 2 0.125
-4.3 2.3 0.062472
-4.3 2.6 0.014819
-4.3 2.9 -0.013698
-4.3 3.2 -0.020532
-4.3 3.5 -0.0050727
-4.3 3.8 0.0313
-4.3 4.1 0.085335
-4.3 4.4 0.15221
-4.3 4.7 0.22594
-4.3 5 0.29996
-4.3 5.3 0.36764
-4.3 5.6 0.42293
-4.3 5.9 0.46091
-4.3 6.2 0.47818
-4.3 6.5 0.47319
-4.3 6.8 0.44639
-4.3 7.1 0.40018
-4.3 7.4 0.33868
-4.3 7.7 0.26738
-4.3 8 0.19267
-4.3 8.3 0.1212
-4.3 8.6 0.059361
-4.3 8.9 0.012683
-4.3 9.2 -0.014669
-4.3 9.5 -0.020252
-4.3 9.8 -0.0035651
-4 -10 -0.020567
-4 -9.7 -0.051391
-4 -9.4 -0.060723
-4 -9.1 -0.04773
-4 -8.8 -0.013573
-4 -8.5 0.038698
-4 -8.2 0.10441
-4 -7.9 0.1777
-4 -7.6 0.25202
-4 -7.3 0.32072
-4 -7 0.37768
-4 -6.7 0.4178
-4 -6.4 0.4375
-4 -6.1 0.43502
-4 -5.8 0.41058
-4 -5.5 0.36637
-4 -5.2 0.30633
-4 -4.9 0.23583
-4 -4.6 0.16116
-4 -4.3 0.089001
-4 -4 0.02579
-4 -3.7 -0.022824
-4 -3.4 -0.052499
-4 -3.1 -0.060583
-4 -2.8 -0.046355
-4 -2.5 -0.011085
-4 -2.2 0.042075
-4 -1.9 0.10838
-4 -1.6 0.1819
-4 -1.3 0.25608
-4 -1 0.32428
-4 -0.7 0.38041
-4 -0.4 0.41947
-4 -0.1 0.43795
-4 0.2 0.43422
-4 0.5 0.4086
-4 0.8 0.36338
-4 1.1 0.3026
-4 1.4 0.23169
-4 1.7 0.15699
-4 2 0.085164
-4 2.3 0.022632
-4 2.6 -0.025022
-4 2.9 -0.053539
-4 3.2 -0.060373
-4 3.5 -0.044914
-4 3.8 -0.0085413
-4 4.1 0.045495
-4 4.4 0.11237
-4 4.7 0.1861
-4 5 0.26012
-4 5.3 0.32779
-4 5.6 0.38309
-4 5.9 0.42107
-4 6.2 0.43834
-4 6.5 0.43335
-4 6.8 0.40655
-4 7.1 0.36034
-4 7.4 0.29884
-4 7.7 0.22754
-4 8 0.15283
-4 8.3 0.081356
-4 8.6 0.019521
-4 8.9 -0.027158
-4 9.2 -0.05451
-4 9.5 -0.060092
-4 9.8 -0.043406
-3.7 -10 -0.077309
-3.7 -9.7 -0.10813
-3.7 -9.4 -0.11746
-3.7 -9.1 -0.10447
-3.7 -8.8 -0.070314
-3.7 -8.5 -0.018044
-3.7 -8.2 0.04767
-3.7 -7.9 0.12096
-3.7 -7.6 0.19527
-3.7 -7.3 0.26398
-3.7 -7 0.32093
-3.7 -6.7 0.36105
-3.7 -6.4 0.38076
-3.7 -6.1 0.37828
-3.7 -5.8 0.35384
-3.7 -5.5 0.30963
-3.7 -5.2 0.24959
-3.7 -4.9 0.17909
-3.7 -4.6 0.10442
-3.7 -4.3 0.032259
-3.7 -4 -0.030952
-3.7 -3.7 -0.079566
-3.7 -3.4 -0.10924
-3.7 -3.1 -0.11732
-3.7 -2.8 -0.1031
-3.7 -2.5 -0.067827
-3.7 -2.2 -0.014666
-3.7 -1.9 0.051637
-3.7 -1.6 0.12516
-3.7 -1.3 0.19933
-3.7 -1 0.26753
-3.7 -0.7 0.32367
-3.7 -0.4 0.36272
-3.7 -0.1 0.38121
-3.7 0.2 0.37748
-3.7 0.5 0.35185
-3.7 0.8 0.30664
-3.7 1.1 0.24586
-3.7 1.4 0.17495
-3.7 1.7 0.10025
-3.7 2 0.028422
-3.7 2.3 -0.03411
-3.7 2.6 -0.081763
-3.7 2.9 -0.11028
-3.7 3.2 -0.11711
-3.7 3.5 -0.10166
-3.7 3.8 -0.065283
-3.7 4.1 -0.011247
-3.7 4.4 0.055626
-3.7 4.7 0.12936
-3.7 5 0.20337
-3.7 5.3 0.27105
-3.7 5.6 0.32635
-3.7 5.9 0.36433
-3.7 6.2 0.38159
-3.7 6.5 0.37661
-3.7 6.8 0.34981
-3.7 7.1 0.3036
-3.7 7.4 0.2421
-3.7 7.7 0.1708
-3.7 8 0.096084
-3.7 8.3 0.024615
-3.7 8.6 -0.037221
-3.7 8.9 -0.0839
-3.7 9.2 -0.11125
-3.7 9.5 -0.11683
-3.7 9.8 -0.10015
-3.4 -10 -0.14588
-3.4 -9.7 -0.17671
-3.4 -9.4 -0.18604
-3.4 -9.1 -0.17305
-3.4 -8.8 -0.13889
-3.4 -8.5 -0.086618
-3.4 -8.2 -0.020903
-3.4 -7.9 0.052385
-3.4 -7.6 0.1267
-3.4 -7.3 0.1954
-3.4 -7 0.25236
-3.4 -6.7 0.29248
-3.4 -6.4 0.31218
-3.4 -6.1 0.3097
-3.4 -5.8 0.28527
-3.4 -5.5 0.24105
-3.4 -5.2 0.18101
-3.4 -4.9 0.11051
-3.4 -4.6 0.035847
-3.4 -4.3 -0.036315
-3.4 -4 -0.099526
-3.4 -3.7 -0.14814
-3.4 -3.4 -0.17781
-3.4 -3.1 -0.1859
-3.4 -2.8 -0.17167
-3.4 -2.5 -0.1364
-3.4 -2.2 -0.08324
-3.4 -1.9 -0.016937
-3.4 -1.6 0.056585
-3.4 -1.3 0.13076
-3.4 -1 0.19896
-3.4 -0.7 0.2551
-3.4 -0.4 0.29415
-3.4 -0.1 0.31264
-3.4 0.2 0.3089
-3.4 0.5 0.28328
-3.4 0.8 0.23806
-3.4 1.1 0.17728
-3.4 1.4 0.10638
-3.4 1.7 0.031674
-3.4 2 -0.040151
-3.4 2.3 -0.10268
-3.4 2.6 -0.15034
-3.4 2.9 -0.17885
-3.4 3.2 -0.18569
-3.4 3.5 -0.17023
-3.4 3.8 -0.13386
-3.4 4.1 -0.079821
-3.4 4.4 -0.012948
-3.4 4.7 0.060788
-3.4 5 0.1348
-3.4 5.3 0.20248
-3.4 5.6 0.25778
-3.4 5.9 0.29575
-3.4 6.2 0.31302
-3.4 6.5 0.30803
-3.4 6.8 0.28123
-3.4 7.1 0.23502
-3.4 7.4 0.17352
-3.4 7.7 0.10223
-3.4 8 0.02751
-3.4 8.3 -0.043959
-3.4 8.6 -0.10579
-3.4 8.9 -0.15247
-3.4 9.2 -0.17983
-3.4 9.5 -0.18541
-3.4 9.8 -0.16872
-3.1 -10 -0.22016
-3.1 -9.7 -0.25099
-3.1 -9.4 -0.26032
-3.1 -9.1 -0.24733
-3.1 -8.8 -0.21317
-3.1 -8.5 -0.1609
-3.1 -8.2 -0.095184
-3.1 -7.9 -0.021896
-3.1 -7.6 0.05242
-3.1 -7.3 0.12112
-3.1 -7 0.17808
-3.1 -6.7 0.2182
-3.1 -6.4 0.2379
-3.1 -6.1 0.23542
-3.1 -5.8 0.21098
-3.1 -5.5 0.16677
-3.1 -5.2 0.10673
-3.1 -4.9 0.036233
-3.1 -4.6 -0.038433
-3.1 -4.3 -0.11059
-3.1 -4 -0.17381
-3.1 -3.7 -0.22242
-3.1 -3.4 -0.25209
-3.1 -3.1 -0.26018
-3.1 -2.8 -0.24595
-3.1 -2.5 -0.21068
-3.1 -2.2 -0.15752
-3.1 -1.9 -0.091218
-3.1 -1.6 -0.017695
-3.1 -1.3 0.05648
-3.1 -1 0.12468
-3.1 -0.7 0.18082
-3.1 -0.4 0.21987
-3.1 -0.1 0.23836
-3.1 0.2 0.23462
-3.1 0.5 0.209
-3.1 0.8 0.16378
-3.1 1.1 0.103
-3.1 1.4 0.032097
-3.1 1.7 -0.042606
-3.1 2 -0.11443
-3.1 2.3 -0.17696
-3.1 2.6 -0.22462
-3.1 2.9 -0.25313
-3.1 3.2 -0.25997
-3.1 3.5 -0.24451
-3.1 3.8 -0.20814
-3.1 4.1 -0.1541
-3.1 4.4 -0.087228
-3.1 4.7 -0.013492
-3.1 5 0.06052
-3.1 5.3 0.1282
-3.1 5.6 0.1835
-3.1 5.9 0.22147
-3.1 6.2 0.23874
-3.1 6.5 0.23375
-3.1 6.8 0.20695
-3.1 7.1 0.16074
-3.1 7.4 0.099242
-3.1 7.7 0.027948
-3.1 8 -0.04677
-3.1 8.3 -0.11824
-3.1 8.6 -0.18008
-3.1 8.9 -0.22675
-3.1 9.2 -0.25411
-3.1 9.5 -0.25969
-3.1 9.8 -0.243
-2.8 -10 -0.29351
-2.8 -9.7 -0.32434
-2.8 -9.4 -0.33367
-2.8 -9.1 -0.32068
-2.8 -8.8 -0.28652
-2.8 -8.5 -0.23425
-2.8 -8.2 -0.16854
-2.8 -7.9 -0.095248
-2.8 -7.6 -0.020932
-2.8 -7.3 0.047772
-2.8 -7 0.10473
-2.8 -6.7 0.14485
-2.8 -6.4 0.16455
-2.8 -6.1 0.16207
-2.8 -5.8 0.13763
-2.8 -5.5 0.09342
-2.8 -5.2 0.033382
-2.8 -4.9 -0.037119
-2.8 -4.6 -0.11179
-2.8 -4.3 -0.18395
-2.8 -4 -0.24716
-2.8 -3.7 -0.29577
-2.8 -3.4 -0.32545
-2.8 -3.1 -0.33353
-2.8 -2.8 -0.3193
-2.8 -2.5 -0.28403
-2.8 -2.2 -0.23087
-2.8 -1.9 -0.16457
-2.8 -1.6 -0.091047
-2.8 -1.3 -0.016872
-2.8 -1 0.051329
-2.8 -0.7 0.10746
-2.8 -0.4 0.14652
-2.8 -0.1 0.165
-2.8 0.2 0.16127
-2.8 0.5 0.13565
-2.8 0.8 0.09043
-2.8 1.1 0.029652
-2.8 1.4 -0.041255
-2.8 1.7 -0.11596
-2.8 2 -0.18778
-2.8 2.3 -0.25032
-2.8 2.6 -0.29797
-2.8 2.9 -0.32649
-2.8 3.2 -0.33332
-2.8 3.5 -0.31786
-2.8 3.8 -0.28149
-2.8 4.1 -0.22745
-2.8 4.4 -0.16058
-2.8 4.7 -0.086844
-2.8 5 -0.012831
-2.8 5.3 0.054847
-2.8 5.6 0.11014
-2.8 5.9 0.14812
-2.8 6.2 0.16539
-2.8 6.5 0.1604
-2.8 6.8 0.1336
-2.8 7.1 0.08739
-2.8 7.4 0.02589
-2.8 7.7 -0.045404
-2.8 8 -0.12012
-2.8 8.3 -0.19159
-2.8 8.6 -0.25343
-2.8 8.9 -0.30011
-2.8 9.2 -0.32746
-2.8 9.5 -0.33304
-2.8 9.8 -0.31635
-2.5 -10 -0.35939
-2.5 -9.7 -0.39021
-2.5 -9.4 -0.39954
-2.5 -9.1 -0.38655
-2.5 -8.8 -0.35239
-2.5 -8.5 -0.30012
-2.5 -8.2 -0.23441
-2.5 -7.9 -0.16112
-2.5 -7.6 -0.086803
-2.5 -7.3 -0.018099
-2.5 -7 0.038858
-2.5 -6.7 0.078978
-2.5 -6.4 0.098678
-2.5 -6.1 0.096199
-2.5 -5.8 0.071762
-2.5 -5.5 0.027549
-2.5 -5.2 -0.032489
-2.5 -4.9 -0.10299
-2.5 -4.6 -0.17766
-2.5 -4.3 -0.24982
-2.5 -4 -0.31303
-2.5 -3.7 -0.36164
-2.5 -3.4 -0.39132
-2.5 -3.1 -0.3994
-2.5 -2.8 -0.38517
-2.5 -2.5 -0.3499
-2.5 -2.2 -0.29674
-2.5 -1.9 -0.23044
-2.5 -1.6 -0.15692
-2.5 -1.3 -0.082743
-2.5 -1 -0.014542
-2.5 -0.7 0.041593
-2.5 -0.4 0.080647
-2.5 -0.1 0.099133
-2.5 0.2 0.095399
-2.5 0.5 0.069778
-2.5 0.8 0.024559
-2.5 1.1 -0.036219
-2.5 1.4 -0.10713
-2.5 1.7 -0.18183
-2.5 2 -0.25365
-2.5 2.3 -0.31619
-2.5 2.6 -0.36384
-2.5 2.9 -0.39236
-2.5 3.2 -0.39919
-2.5 3.5 -0.38373
-2.5 3.8 -0.34736
-2.5 4.1 -0.29332
-2.5 4.4 -0.22645
-2.5 4.7 -0.15272
-2.5 5 -0.078702
-2.5 5.3 -0.011024
-2.5 5.6 0.044273
-2.5 5.9 0.082252
-2.5 6.2 0.099517
-2.5 6.5 0.094529
-2.5 6.8 0.067731
-2.5 7.1 0.021519
-2.5 7.4 -0.039981
-2.5 7.7 -0.11127
-2.5 8 -0.18599
-2.5 8.3 -0.25746
-2.5 8.6 -0.3193
-2.5 8.9 -0.36598
-2.5 9.2 -0.39333
-2.5 9.5 -0.39891
-2.5 9.8 -0.38222
-2.2 -10 -0.41189
-2.2 -9.7 -0.44272
-2.2 -9.4 -0.45205
-2.2 -9.1 -0.43905
-2.2 -8.8 -0.4049
-2.2 -8.5 -0.35263
-2.2 -8.2 -0.28691
-2.2 -7.9 -0.21362
-2.2 -7.6 -0.13931
-2.2 -7.3 -0.070605
-2.2 -7 -0.013649
-2.2 -6.7 0.026472
-2.2 -6.4 0.046172
-2.2 -6.1 0.043693
-2.2 -5.8 0.019256
-2.2 -5.5 -0.024957
-2.2 -5.2 -0.084995
-2.2 -4.9 -0.1555
-2.2 -4.6 -0.23016
-2.2 -4.3 -0.30232
-2.2 -4 -0.36554
-2.2 -3.7 -0.41415
-2.2 -3.4 -0.44382
-2.2 -3.1 -0.45191
-2.2 -2.8 -0.43768
-2.2 -2.5 -0.40241
-2.2 -2.2 -0.34925
-2.2 -1.9 -0.28295
-2.2 -1.6 -0.20942
-2.2 -1.3 -0.13525
-2.2 -1 -0.067049
-2.2 -0.7 -0.010914
-2.2 -0.4 0.028141
-2.2 -0.1 0.046627
-2.2 0.2 0.042893
-2.2 0.5 0.017272
-2.2 0.8 -0.027947
-2.2 1.1 -0.088725
-2.2 1.4 -0.15963
-2.2 1.7 -0.23434
-2.2 2 -0.30616
-2.2 2.3 -0.36869
-2.2 2.6 -0.41635
-2.2 2.9 -0.44486
-2.2 3.2 -0.4517
-2.2 3.5 -0.43624
-2.2 3.8 -0.39987
-2.2 4.1 -0.34583
-2.2 4.4 -0.27896
-2.2 4.7 -0.20522
-2.2 5 -0.13121
-2.2 5.3 -0.063531
-2.2 5.6 -0.0082326
-2.2 5.9 0.029746
-2.2 6.2 0.047011
-2.2 6.5 0.042023
-2.2 6.8 0.015225
-2.2 7.1 -0.030987
-2.2 7.4 -0.092487
-2.2 7.7 -0.16378
-2.2 8 -0.2385
-2.2 8.3 -0.30997
-2.2 8.6 -0.3718
-2.2 8.9 -0.41848
-2.2 9.2 -0.44584
-2.2 9.5 -0.45142
-2.2 9.8 -0.43473
-1.9 -10 -0.44634
-1.9 -9.7 -0.47717
-1.9 -9.4 -0.4865
-1.9 -9.1 -0.47351
-1.9 -8.8 -0.43935
-1.9 -8.5 -0.38708
-1.9 -8.2 -0.32136
-1.9 -7.9 -0.24808
-1.9 -7.6 -0.17376
-1.9 -7.3 -0.10506
-1.9 -7 -0.048099
-1.9 -6.7 -0.0079792
-1.9 -6.4 0.011721
-1.9 -6.1 0.0092421
-1.9 -5.8 -0.015195
-1.9 -5.5 -0.059408
-1.9 -5.2 -0.11945
-1.9 -4.9 -0.18995
-1.9 -4.6 -0.26461
-1.9 -4.3 -0.33677
-1.9 -4 -0.39999
-1.9 -3.7 -0.4486
-1.9 -3.4 -0.47827
-1.9 -3.1 -0.48636
-1.9 -2.8 -0.47213
-1.9 -2.5 -0.43686
-1.9 -2.2 -0.3837
-1.9 -1.9 -0.3174
-1.9 -1.6 -0.24387
-1.9 -1.3 -0.1697
-1.9 -1 -0.1015
-1.9 -0.7 -0.045364
-1.9 -0.4 -0.0063098
-1.9 -0.1 0.012176
-1.9 0.2 0.0084416
-1.9 0.5 -0.017179
-1.9 0.8 -0.062398
-1.9 1.1 -0.12318
-1.9 1.4 -0.19408
-1.9 1.7 -0.26879
-1.9 2 -0.34061
-1.9 2.3 -0.40314
-1.9 2.6 -0.4508
-1.9 2.9 -0.47931
-1.9 3.2 -0.48615
-1.9 3.5 -0.47069
-1.9 3.8 -0.43432
-1.9 4.1 -0.38028
-1.9 4.4 -0.31341
-1.9 4.7 -0.23967
-1.9 5 -0.16566
-1.9 5.3 -0.097981
-1.9 5.6 -0.042684
-1.9 5.9 -0.0047054
-1.9 6.2 0.012561
-1.9 6.5 0.0075719
-1.9 6.8 -0.019226
-1.9 7.1 -0.065438
-1.9 7.4 -0.12694
-1.9 7.7 -0.19823
-1.9 8 -0.27295
-1.9 8.3 -0.34442
-1.9 8.6 -0.40626
-1.9 8.9 -0.45293
-1.9 9.2 -0.48029
-1.9 9.5 -0.48587
-1.9 9.8 -0.46918
-1.6 -10 -0.45966
-1.6 -9.7 -0.49048
-1.6 -9.4 -0.49982
-1.6 -9.1 -0.48682
-1.6 -8.8 -0.45267
-1.6 -8.5 -0.4004
-1.6 -8.2 -0.33468
-1.6 -7.9 -0.26139
-1.6 -7.6 -0.18708
-1.6 -7.3 -0.11837
-1.6 -7 -0.061418
-1.6 -6.7 -0.021298
-1.6 -6.4 -0.0015972
-1.6 -6.1 -0.0040763
-1.6 -5.8 -0.028514
-1.6 -5.5 -0.072726
-1.6 -5.2 -0.13276
-1.6 -4.9 -0.20327
-1.6 -4.6 -0.27793
-1.6 -4.3 -0.35009
-1.6 -4 -0.4133
-1.6 -3.7 -0.46192
-1.6 -3.4 -0.49159
-1.6 -3.1 -0.49968
-1.6 -2.8 -0.48545
-1.6 -2.5 -0.45018
-1.6 -2.2 -0.39702
-1.6 -1.9 -0.33072
-1.6 -1.6 -0.25719
-1.6 -1.3 -0.18302
-1.6 -1 -0.11482
-1.6 -0.7 -0.058683
-1.6 -0.4 -0.019628
-1.6 -0.1 -0.0011424
-1.6 0.2 -0.0048768
-1.6 0.5 -0.030498
-1.6 0.8 -0.075717
-1.6 1.1 -0.13649
-1.6 1.4 -0.2074
-1.6 1.7 -0.2821
-1.6 2 -0.35393
-1.6 2.3 -0.41646
-1.6 2.6 -0.46412
-1.6 2.9 -0.49263
-1.6 3.2 -0.49947
-1.6 3.5 -0.48401
-1.6 3.8 -0.44764
-1.6 4.1 -0.3936
-1.6 4.4 -0.32673
-1.6 4.7 -0.25299
-1.6 5 -0.17898
-1.6 5.3 -0.1113
-1.6 5.6 -0.056002
-1.6 5.9 -0.018024
-1.6 6.2 -0.00075788
-1.6 6.5 -0.0057465
-1.6 6.8 -0.032544
-1.6 7.1 -0.078757
-1.6 7.4 -0.14026
-1.6 7.7 -0.21155
-1.6 8 -0.28627
-1.6 8.3 -0.35774
-1.6 8.6 -0.41957
-1.6 8.9 -0.46625
-1.6 9.2 -0.4936
-1.6 9.5 -0.49919
-1.6 9.8 -0.4825
-1.3 -10 -0.45066
-1.3 -9.7 -0.48148
-1.3 -9.4 -0.49081
-1.3 -9.1 -0.47782
-1.3 -8.8 -0.44366
-1.3 -8.5 -0.39139
-1.3 -8.2 -0.32568
-1.3 -7.9 -0.25239
-1.3 -7.6 -0.17807
-1.3 -7.3 -0.10937
-1.3 -7 -0.052414
-1.3 -6.7 -0.012294
-1.3 -6.4 0.0074067
-1.3 -6.1 0.0049276
-1.3 -5.8 -0.01951
-1.3 -5.5 -0.063722
-1.3 -5.2 -0.12376
-1.3 -4.9 -0.19426
-1.3 -4.6 -0.26893
-1.3 -4.3 -0.34109
-1.3 -4 -0.4043
-1.3 -3.7 -0.45291
-1.3 -3.4 -0.48259
-1.3 -3.1 -0.49067
-1.3 -2.8 -0.47645
-1.3 -2.5 -0.44118
-1.3 -2.2 -0.38801
-1.3 -1.9 -0.32171
