2.9362 0.85939 1.3209
2.9362 0.85939 1.6209
2.9362 0.85939 1.9209
2.9362 0.85939 2.0978
2.9362 0.85939 2.2209
2.9362 0.85939 2.3978
2.9362 0.85939 2.5209
2.9362 0.85939 2.6978
2.9362 0.85939 2.8209
2.9362 0.85939 2.9978
2.9362 0.85939 3.1209
2.9362 0.85939 3.2978
2.9362 0.85939 3.5978
2.9362 0.85939 3.8978
2.9362 1.1594 1.3209
2.9362 1.1594 1.6209
2.9362 1.1594 1.9209
2.9362 1.1594 2.0978
2.9362 1.1594 2.2209
2.9362 1.1594 2.3978
2.9362 1.1594 2.5209
2.9362 1.1594 2.6978
2.9362 1.1594 2.8209
2.9362 1.1594 2.9978
2.9362 1.1594 3.1209
2.9362 1.1594 3.2978
2.9362 1.1594 3.5978
2.9362 1.1594 3.8978
2.9362 1.4594 1.3209
2.9362 1.4594 1.6209
2.9362 1.4594 1.9209
2.9362 1.4594 2.0978
2.9362 1.4594 2.2209
2.9362 1.4594 2.3978
2.9362 1.4594 2.5209
2.9362 1.4594 2.6978
2.9362 1.4594 2.8209
2.9362 1.4594 2.9978
2.9362 1.4594 3.1209
2.9362 1.4594 3.2978
2.9362 1.4594 3.5978
2.9362 1.4594 3.8978
2.9362 1.5853 1.3209
2.9362 1.5853 1.6209
2.9362 1.5853 1.9209
2.9362 1.5853 2.2209
2.9362 1.5853 2.5209
2.9362 1.5853 2.8209
2.9362 1.5853 3.1209
2.9362 1.7594 1.3209
2.9362 1.7594 1.6209
2.9362 1.7594 1.9209
2.9362 1.7594 2.0978
2.9362 1.7594 2.2209
2.9362 1.7594 2.3978
2.9362 1.7594 2.5209
2.9362 1.7594 2.6978
2.9362 1.7594 2.8209
2.9362 1.7594 2.9978
2.9362 1.7594 3.1209
2.9362 1.7594 3.2978
2.9362 1.7594 3.5978
2.9362 1.7594 3.8978
2.9362 2.0594 1.3209
2.9362 2.0594 1.6209
2.9362 2.0594 1.9209
2.9362 2.0594 2.0978
2.9362 2.0594 2.2209
2.9362 2.0594 2.3978
2.9362 2.0594 2.5209
2.9362 2.0594 2.6978
2.9362 2.0594 2.8209
2.9362 2.0594 2.9978
2.9362 2.0594 3.1209
2.9362 2.0594 3.2978
2.9362 2.0594 3.5978
2.9362 2.0594 3.8978
2.9362 2.3594 1.3209
2.9362 2.3594 1.6209
2.9362 2.3594 1.9209
2.9362 2.3594 2.0978
2.9362 2.3594 2.2209
2.9362 2.3594 2.3978
2.9362 2.3594 2.5209
2.9362 2.3594 2.6978
2.9362 2.3594 2.8209
2.9362 2.3594 2.9978
2.9362 2.3594 3.1209
2.9362 2.3594 3.2978
2.9362 2.3594 3.5978
2.9362 2.3594 3.8978
2.9362 2.6594 1.3209
2.9362 2.6594 1.6209
2.9362 2.6594 1.9209
2.9362 2.6594 2.0978
2.9362 2.6594 2.2209
2.9362 2.6594 2.3978
2.9362 2.6594 2.5209
2.9362 2.6594 2.6978
2.9362 2.6594 2.8209
2.9362 2.6594 2.9978
2.9362 2.6594 3.1209
2.9362 2.6594 3.2978
2.9362 2.6594 3.5978
2.9362 2.6594 3.8978
3.2362 0.85939 1.3209
3.2362 0.85939 1.6209
3.2362 0.85939 1.9209
3.2362 0.85939 2.0978
3.2362 0.85939 2.2209
3.2362 0.85939 2.3978
3.2362 0.85939 2.5209
3.2362 0.85939 2.6978
3.2362 0.85939 2.8209
3.2362 0.85939 2.9978
3.2362 0.85939 3.1209
3.2362 0.85939 3.2978
3.2362 0.85939 3.5978
3.2362 0.85939 3.8978
3.2362 1.1594 1.3209
3.2362 1.1594 3.8978
3.2362 1.4594 1.3209
3.2362 1.4594 3.8978
3.2362 1.5853 1.3209
3.2362 1.7594 1.3209
3.2362 1.7594 3.8978
3.2362 2.0594 1.3209
3.2362 2.0594 3.8978
3.2362 2.3594 1.3209
3.2362 2.3594 3.8978
3.2362 2.6594 1.3209
3.2362 2.6594 1.6209
3.2362 2.6594 1.9209
3.2362 2.6594 2.0978
3.2362 2.6594 2.2209
3.2362 2.6594 2.3978
3.2362 2.6594 2.5209
3.2362 2.6594 2.6978
3.2362 2.6594 2.8209
3.2362 2.6594 2.9978
3.2362 2.6594 3.1209
3.2362 2.6594 3.2978
3.2362 2.6594 3.5978
3.2362 2.6594 3.8978
3.5362 0.85939 1.3209
3.5362 0.85939 1.6209
3.5362 0.85939 1.9209
3.5362 0.85939 2.0978
3.5362 0.85939 2.2209
3.5362 0.85939 2.3978
3.5362 0.85939 2.5209
3.5362 0.85939 2.6978
3.5362 0.85939 2.8209
3.5362 0.85939 2.9978
3.5362 0.85939 3.1209
3.5362 0.85939 3.2978
3.5362 0.85939 3.5978
3.5362 0.85939 3.8978
3.5362 1.1594 1.3209
3.5362 1.1594 3.8978
3.5362 1.4594 1.3209
3.5362 1.4594 3.8978
3.5362 1.5853 1.3209
3.5362 1.7594 1.3209
3.5362 1.7594 3.8978
3.5362 2.0594 1.3209
3.5362 2.0594 3.8978
3.5362 2.3594 1.3209
3.5362 2.3594 3.8978
3.5362 2.6594 1.3209
3.5362 2.6594 1.6209
3.5362 2.6594 1.9209
3.5362 2.6594 2.0978
3.5362 2.6594 2.2209
3.5362 2.6594 2.3978
3.5362 2.6594 2.5209
3.5362 2.6594 2.6978
3.5362 2.6594 2.8209
3.5362 2.6594 2.9978
3.5362 2.6594 3.1209
3.5362 2.6594 3.2978
3.5362 2.6594 3.5978
3.5362 2.6594 3.8978
3.8362 0.85939 1.3209
3.8362 0.85939 1.6209
3.8362 0.85939 1.9209
3.8362 0.85939 2.0978
3.8362 0.85939 2.2209
3.8362 0.85939 2.3978
3.8362 0.85939 2.5209
3.8362 0.85939 2.6978
3.8362 0.85939 2.8209
3.8362 0.85939 2.9978
3.8362 0.85939 3.1209
3.8362 0.85939 3.2978
3.8362 0.85939 3.5978
3.8362 0.85939 3.8978
3.8362 1.1594 1.3209
3.8362 1.1594 3.8978
3.8362 1.4594 1.3209
3.8362 1.4594 3.8978
3.8362 1.5853 1.3209
3.8362 1.7594 1.3209
3.8362 1.7594 3.8978
3.8362 2.0594 1.3209
3.8362 2.0594 3.8978
3.8362 2.3594 1.3209
3.8362 2.3594 3.8978
3.8362 2.6594 1.3209
3.8362 2.6594 1.6209
3.8362 2.6594 1.9209
3.8362 2.6594 2.0978
3.8362 2.6594 2.2209
3.8362 2.6594 2.3978
3.8362 2.6594 2.5209
3.8362 2.6594 2.6978
3.8362 2.6594 2.8209
3.8362 2.6594 2.9978
3.8362 2.6594 3.1209
3.8362 2.6594 3.2978
3.8362 2.6594 3.5978
3.8362 2.6594 3.8978
4.1362 0.85939 1.3209
4.1362 0.85939 1.6209
4.1362 0.85939 1.9209
4.1362 0.85939 2.0978
4.1362 0.85939 2.2209
4.1362 0.85939 2.3978
4.1362 0.85939 2.5209
4.1362 0.85939 2.6978
4.1362 0.85939 2.8209
4.1362 0.85939 2.9978
4.1362 0.85939 3.1209
4.1362 0.85939 3.2978
4.1362 0.85939 3.5978
4.1362 0.85939 3.8978
4.1362 1.1594 1.3209
4.1362 1.1594 3.8978
4.1362 1.4594 1.3209
4.1362 1.4594 3.8978
4.1362 1.5853 1.3209
4.1362 1.7594 1.3209
4.1362 1.7594 3.8978
4.1362 2.0594 1.3209
4.1362 2.0594 3.8978
4.1362 2.3594 1.3209
4.1362 2.3594 3.8978
4.1362 2.6594 1.3209
4.1362 2.6594 1.6209
4.1362 2.6594 1.9209
4.1362 2.6594 2.0978
4.1362 2.6594 2.2209
4.1362 2.6594 2.3978
4.1362 2.6594 2.5209
4.1362 2.6594 2.6978
4.1362 2.6594 2.8209
4.1362 2.6594 2.9978
4.1362 2.6594 3.1209
4.1362 2.6594 3.2978
4.1362 2.6594 3.5978
4.1362 2.6594 3.8978
4.4362 0.85939 1.3209
4.4362 0.85939 1.6209
4.4362 0.85939 1.9209
4.4362 0.85939 2.0978
4.4362 0.85939 2.2209
4.4362 0.85939 2.3978
4.4362 0.85939 2.5209
4.4362 0.85939 2.6978
4.4362 0.85939 2.8209
4.4362 0.85939 2.9978
4.4362 0.85939 3.1209
4.4362 0.85939 3.2978
4.4362 0.85939 3.5978
4.4362 0.85939 3.8978
4.4362 1.1594 1.3209
4.4362 1.1594 3.8978
4.4362 1.4594 1.3209
4.4362 1.4594 3.8978
4.4362 1.5853 1.3209
4.4362 1.7594 1.3209
4.4362 1.7594 3.8978
4.4362 2.0594 1.3209
4.4362 2.0594 3.8978
4.4362 2.3594 1.3209
4.4362 2.3594 3.8978
4.4362 2.6594 1.3209
4.4362 2.6594 1.6209
4.4362 2.6594 1.9209
4.4362 2.6594 2.0978
4.4362 2.6594 2.2209
4.4362 2.6594 2.3978
4.4362 2.6594 2.5209
4.4362 2.6594 2.6978
4.4362 2.6594 2.8209
4.4362 2.6594 2.9978
4.4362 2.6594 3.1209
4.4362 2.6594 3.2978
4.4362 2.6594 3.5978
4.4362 2.6594 3.8978
4.7362 0.85939 1.3209
4.7362 0.85939 1.6209
4.7362 0.85939 1.9209
4.7362 0.85939 2.0978
4.7362 0.85939 2.2209
4.7362 0.85939 2.3978
4.7362 0.85939 2.5209
4.7362 0.85939 2.6978
4.7362 0.85939 2.8209
4.7362 0.85939 2.9978
4.7362 0.85939 3.1209
4.7362 0.85939 3.2978
4.7362 0.85939 3.5978
4.7362 0.85939 3.8978
4.7362 1.1594 1.3209
4.7362 1.1594 1.6209
4.7362 1.1594 1.9209
4.7362 1.1594 2.0978
4.7362 1.1594 2.2209
4.7362 1.1594 2.3978
4.7362 1.1594 2.5209
4.7362 1.1594 2.6978
4.7362 1.1594 2.8209
4.7362 1.1594 2.9978
4.7362 1.1594 3.1209
4.7362 1.1594 3.2978
4.7362 1.1594 3.5978
4.7362 1.1594 3.8978
4.7362 1.4594 1.3209
4.7362 1.4594 1.6209
4.7362 1.4594 1.9209
4.7362 1.4594 2.0978
4.7362 1.4594 2.2209
4.7362 1.4594 2.3978
4.7362 1.4594 2.5209
4.7362 1.4594 2.6978
4.7362 1.4594 2.8209
4.7362 1.4594 2.9978
4.7362 1.4594 3.1209
4.7362 1.4594 3.2978
4.7362 1.4594 3.5978
4.7362 1.4594 3.8978
4.7362 1.5853 1.3209
4.7362 1.5853 1.6209
4.7362 1.5853 1.9209
4.7362 1.5853 2.2209
4.7362 1.5853 2.5209
4.7362 1.5853 2.8209
4.7362 1.5853 3.1209
4.7362 1.7594 1.3209
4.7362 1.7594 1.6209
4.7362 1.7594 1.9209
4.7362 1.7594 2.0978
4.7362 1.7594 2.2209
4.7362 1.7594 2.3978
4.7362 1.7594 2.5209
4.7362 1.7594 2.6978
4.7362 1.7594 2.8209
4.7362 1.7594 2.9978
4.7362 1.7594 3.1209
4.7362 1.7594 3.2978
4.7362 1.7594 3.5978
4.7362 1.7594 3.8978
4.7362 2.0594 1.3209
4.7362 2.0594 1.6209
4.7362 2.0594 1.9209
4.7362 2.0594 2.0978
4.7362 2.0594 2.2209
4.7362 2.0594 2.3978
4.7362 2.0594 2.5209
4.7362 2.0594 2.6978
4.7362 2.0594 2.8209
4.7362 2.0594 2.9978
4.7362 2.0594 3.1209
4.7362 2.0594 3.2978
4.7362 2.0594 3.5978
4.7362 2.0594 3.8978
4.7362 2.3594 1.3209
4.7362 2.3594 1.6209
4.7362 2.3594 1.9209
4.7362 2.3594 2.0978
4.7362 2.3594 2.2209
4.7362 2.3594 2.3978
4.7362 2.3594 2.5209
4.7362 2.3594 2.6978
4.7362 2.3594 2.8209
4.7362 2.3594 2.9978
4.7362 2.3594 3.1209
4.7362 2.3594 3.2978
4.7362 2.3594 3.5978
4.7362 2.3594 3.8978
4.7362 2.6594 1.3209
4.7362 2.6594 1.6209
4.7362 2.6594 1.9209
4.7362 2.6594 2.0978
4.7362 2.6594 2.2209
4.7362 2.6594 2.3978
4.7362 2.6594 2.5209
4.7362 2.6594 2.6978
4.7362 2.6594 2.8209
4.7362 2.6594 2.9978
4.7362 2.6594 3.1209
4.7362 2.6594 3.2978
4.7362 2.6594 3.5978
4.7362 2.6594 3.8978
4.1331 0.14051 3.0752
4.1454 0.14051 2.9188
4.1454 0.14051 3.2317
4.182 -0.16851 3.0752
4.182 0.14051 2.7662
4.182 0.14051 3.3843
4.182 0.44952 3.0752
4.1937 -0.16471 2.9188
4.1937 -0.16471 3.2317
4.1937 0.44572 2.9188
4.1937 0.44572 3.2317
4.2286 -0.15339 2.7662
4.2286 -0.15339 3.3843
4.2286 0.4344 2.7662
4.2286 0.4344 3.3843
4.2421 0.14051 2.6213
4.2421 0.14051 3.5292
4.2857 -0.13483 2.6213
4.2857 -0.13483 3.5292
4.2857 0.41584 2.6213
4.2857 0.41584 3.5292
4.3241 0.14051 2.4875
4.3241 0.14051 3.663
4.3241 -0.44728 3.0752
4.3241 0.72829 3.0752
4.334 -0.44004 2.9188
4.334 -0.44004 3.2317
4.334 0.72105 2.9188
4.334 0.72105 3.2317
4.3637 -0.10949 2.4875
4.3637 -0.10949 3.663
4.3637 0.39051 2.4875
4.3637 0.39051 3.663
4.3637 -0.41851 2.7662
4.3637 -0.41851 3.3843
4.3637 0.69952 2.7662
4.3637 0.69952 3.3843
4.4123 -0.38321 2.6213
4.4123 -0.38321 3.5292
4.4123 0.66423 2.6213
4.4123 0.66423 3.5292
4.426 0.14051 2.3681
4.426 0.14051 3.7824
4.4606 -0.078002 2.3681
4.4606 -0.078002 3.7824
4.4606 0.35901 2.3681
4.4606 0.35901 3.7824
4.4786 -0.33502 2.4875
4.4786 -0.33502 3.663
4.4786 0.61603 2.4875
4.4786 0.61603 3.663
4.5453 0.14051 2.2662
4.5453 0.14051 3.8843
4.5453 -0.66851 3.0752
4.5453 0.94952 3.0752
4.5525 -0.65855 2.9188
4.5525 -0.65855 3.2317
4.5525 0.93956 2.9188
4.5525 0.93956 3.2317
4.561 -0.27512 2.3681
4.561 -0.27512 3.7824
4.561 0.55613 2.3681
4.561 0.55613 3.7824
4.5741 -0.041129 2.2662
4.5741 -0.041129 3.8843
4.5741 0.32214 2.2662
4.5741 0.32214 3.8843
4.5741 -0.62891 2.7662
4.5741 -0.62891 3.3843
4.5741 0.90993 2.7662
4.5741 0.90993 3.3843
4.6094 -0.58033 2.6213
4.6094 -0.58033 3.5292
4.6094 0.86135 2.6213
4.6094 0.86135 3.5292
4.6576 -0.20499 2.2662
4.6576 -0.20499 3.8843
4.6576 0.486 2.2662
4.6576 0.486 3.8843
4.6576 -0.514 2.4875
4.6576 -0.514 3.663
4.6576 0.79501 2.4875
4.6576 0.79501 3.663
4.6791 0.14051 2.1842
4.6791 0.14051 3.9663
4.7013 0.00021552 2.1842
4.7013 0.00021552 3.9663
4.7013 0.2808 2.1842
4.7013 0.2808 3.9663
4.7175 -0.43156 2.3681
4.7175 -0.43156 3.7824
4.7175 0.71257 2.3681
4.7175 0.71257 3.7824
4.7658 -0.12634 2.1842
4.7658 -0.12634 3.9663
4.7658 0.40736 2.1842
4.7658 0.40736 3.9663
4.7876 -0.33502 2.2662
4.7876 -0.33502 3.8843
4.7876 0.61603 2.2662
4.7876 0.61603 3.8843
4.8241 0.14051 2.1242
4.8241 0.14051 4.0263
4.8241 -0.81055 3.0752
4.8241 1.0916 3.0752
4.8279 -0.79884 2.9188
4.8279 -0.79884 3.2317
4.8279 1.0799 2.9188
4.8279 1.0799 3.2317
4.8392 0.045015 2.1242
4.8392 0.045015 4.0263
4.8392 0.236 2.1242
4.8392 0.236 4.0263
4.8392 -0.764 2.7662
4.8392 -0.764 3.3843
4.8392 1.045 2.7662
4.8392 1.045 3.3843
4.8578 -0.70689 2.6213
4.8578 -0.70689 3.5292
4.8578 0.9879 2.6213
4.8578 0.9879 3.5292
4.8662 -0.22678 2.1842
4.8662 -0.22678 3.9663
4.8662 0.50779 2.1842
4.8662 0.50779 3.9663
4.8831 -0.041129 2.1242
4.8831 -0.041129 4.0263
4.8831 0.32214 2.1242
4.8831 0.32214 4.0263
4.8831 -0.62891 2.4875
4.8831 -0.62891 3.663
4.8831 0.90993 2.4875
4.8831 0.90993 3.663
4.9146 -0.53199 2.3681
4.9146 -0.53199 3.7824
4.9146 0.813 2.3681
4.9146 0.813 3.7824
4.9515 -0.10949 2.1242
4.9515 -0.10949 4.0263
4.9515 0.39051 2.1242
4.9515 0.39051 4.0263
4.9515 -0.41851 2.2662
4.9515 -0.41851 3.8843
4.9515 0.69952 2.2662
4.9515 0.69952 3.8843
4.9767 0.14051 2.0876
4.9767 0.14051 4.0629
4.9843 0.092165 2.0876
4.9843 0.092165 4.0629
4.9843 0.18885 2.0876
4.9843 0.18885 4.0629
4.9928 -0.29126 2.1842
4.9928 -0.29126 3.9663
4.9928 0.57228 2.1842
4.9928 0.57228 3.9663
5.0065 0.048556 2.0876
5.0065 0.048556 4.0629
5.0065 0.23246 2.0876
5.0065 0.23246 4.0629
5.0376 -0.15339 2.1242
5.0376 -0.15339 4.0263
5.0376 0.4344 2.1242
5.0376 0.4344 4.0263
5.0411 0.013948 2.0876
5.0411 0.013948 4.0629
5.0411 0.26706 2.0876
5.0411 0.26706 4.0629
5.0848 -0.0082717 2.0876
5.0848 -0.0082717 4.0629
5.0848 0.28928 2.0876
5.0848 0.28928 4.0629
5.1331 0.14051 2.0752
5.1331 0.14051 4.0752
5.1331 -0.015928 2.0876
5.1331 -0.015928 4.0629
5.1331 0.29694 2.0876
5.1331 0.29694 4.0629
5.1331 -0.16851 2.1242
5.1331 -0.16851 4.0263
5.1331 0.44952 2.1242
5.1331 0.44952 4.0263
5.1331 -0.31348 2.1842
5.1331 -0.31348 3.9663
5.1331 0.5945 2.1842
5.1331 0.5945 3.9663
5.1331 -0.44728 2.2662
5.1331 -0.44728 3.8843
5.1331 0.72829 2.2662
5.1331 0.72829 3.8843
5.1331 -0.5666 2.3681
5.1331 -0.5666 3.7824
5.1331 0.84761 2.3681
5.1331 0.84761 3.7824
5.1331 -0.66851 2.4875
5.1331 -0.66851 3.663
5.1331 0.94952 2.4875
5.1331 0.94952 3.663
5.1331 -0.7505 2.6213
5.1331 -0.7505 3.5292
5.1331 1.0315 2.6213
5.1331 1.0315 3.5292
5.1331 -0.81055 2.7662
5.1331 -0.81055 3.3843
5.1331 1.0916 2.7662
5.1331 1.0916 3.3843
5.1331 -0.84718 2.9188
5.1331 -0.84718 3.2317
5.1331 1.1282 2.9188
5.1331 1.1282 3.2317
5.1331 -0.85949 3.0752
5.1331 1.1405 3.0752
5.1814 -0.0082717 2.0876
5.1814 -0.0082717 4.0629
5.1814 0.28928 2.0876
5.1814 0.28928 4.0629
5.225 0.013948 2.0876
5.225 0.013948 4.0629
5.225 0.26706 2.0876
5.225 0.26706 4.0629
5.2286 -0.15339 2.1242
5.2286 -0.15339 4.0263
5.2286 0.4344 2.1242
5.2286 0.4344 4.0263
5.2597 0.048556 2.0876
5.2597 0.048556 4.0629
5.2597 0.23246 2.0876
5.2597 0.23246 4.0629
5.2734 -0.29126 2.1842
5.2734 -0.29126 3.9663
5.2734 0.57228 2.1842
5.2734 0.57228 3.9663
5.2819 0.092165 2.0876
5.2819 0.092165 4.0629
5.2819 0.18885 2.0876
5.2819 0.18885 4.0629
5.2895 0.14051 2.0876
5.2895 0.14051 4.0629
5.3147 -0.41851 2.2662
5.3147 -0.41851 3.8843
5.3147 -0.10949 2.1242
5.3147 -0.10949 4.0263
5.3147 0.39051 2.1242
5.3147 0.39051 4.0263
5.3147 0.69952 2.2662
5.3147 0.69952 3.8843
5.3516 -0.53199 2.3681
5.3516 -0.53199 3.7824
5.3516 0.813 2.3681
5.3516 0.813 3.7824
5.3831 -0.62891 2.4875
5.3831 -0.62891 3.663
5.3831 -0.041129 2.1242
5.3831 -0.041129 4.0263
5.3831 0.32214 2.1242
5.3831 0.32214 4.0263
5.3831 0.90993 2.4875
5.3831 0.90993 3.663
5.3999 -0.22678 2.1842
5.3999 -0.22678 3.9663
5.3999 0.50779 2.1842
5.3999 0.50779 3.9663
5.4084 -0.70689 2.6213
5.4084 -0.70689 3.5292
5.4084 0.9879 2.6213
5.4084 0.9879 3.5292
5.427 -0.764 2.7662
5.427 -0.764 3.3843
5.427 0.045015 2.1242
5.427 0.045015 4.0263
5.427 0.236 2.1242
5.427 0.236 4.0263
5.427 1.045 2.7662
5.427 1.045 3.3843
5.4383 -0.79884 2.9188
5.4383 -0.79884 3.2317
5.4383 1.0799 2.9188
5.4383 1.0799 3.2317
5.4421 -0.81055 3.0752
5.4421 0.14051 2.1242
5.4421 0.14051 4.0263
5.4421 1.0916 3.0752
5.4786 -0.33502 2.2662
5.4786 -0.33502 3.8843
5.4786 0.61603 2.2662
5.4786 0.61603 3.8843
5.5004 -0.12634 2.1842
5.5004 -0.12634 3.9663
5.5004 0.40736 2.1842
5.5004 0.40736 3.9663
5.5487 -0.43156 2.3681
5.5487 -0.43156 3.7824
5.5487 0.71257 2.3681
5.5487 0.71257 3.7824
5.5649 0.00021552 2.1842
5.5649 0.00021552 3.9663
5.5649 0.2808 2.1842
5.5649 0.2808 3.9663
5.5871 0.14051 2.1842
5.5871 0.14051 3.9663
5.6086 -0.514 2.4875
5.6086 -0.514 3.663
5.6086 -0.20499 2.2662
5.6086 -0.20499 3.8843
5.6086 0.486 2.2662
5.6086 0.486 3.8843
5.6086 0.79501 2.4875
5.6086 0.79501 3.663
5.6568 -0.58033 2.6213
5.6568 -0.58033 3.5292
5.6568 0.86135 2.6213
5.6568 0.86135 3.5292
5.6921 -0.62891 2.7662
5.6921 -0.62891 3.3843
5.6921 -0.041129 2.2662
5.6921 -0.041129 3.8843
5.6921 0.32214 2.2662
5.6921 0.32214 3.8843
5.6921 0.90993 2.7662
5.6921 0.90993 3.3843
5.7052 -0.27512 2.3681
5.7052 -0.27512 3.7824
5.7052 0.55613 2.3681
5.7052 0.55613 3.7824
5.7136 -0.65855 2.9188
5.7136 -0.65855 3.2317
5.7136 0.93956 2.9188
5.7136 0.93956 3.2317
5.7209 -0.66851 3.0752
5.7209 0.14051 2.2662
5.7209 0.14051 3.8843
5.7209 0.94952 3.0752
5.7876 -0.33502 2.4875
5.7876 -0.33502 3.663
5.7876 0.61603 2.4875
5.7876 0.61603 3.663
5.8056 -0.078002 2.3681
5.8056 -0.078002 3.7824
5.8056 0.35901 2.3681
5.8056 0.35901 3.7824
5.8402 0.14051 2.3681
5.8402 0.14051 3.7824
5.8539 -0.38321 2.6213
5.8539 -0.38321 3.5292
5.8539 0.66423 2.6213
5.8539 0.66423 3.5292
5.9025 -0.41851 2.7662
5.9025 -0.41851 3.3843
5.9025 -0.10949 2.4875
5.9025 -0.10949 3.663
5.9025 0.39051 2.4875
5.9025 0.39051 3.663
5.9025 0.69952 2.7662
5.9025 0.69952 3.3843
5.9321 -0.44004 2.9188
5.9321 -0.44004 3.2317
5.9321 0.72105 2.9188
5.9321 0.72105 3.2317
5.9421 -0.44728 3.0752
5.9421 0.14051 2.4875
5.9421 0.14051 3.663
5.9421 0.72829 3.0752
5.9805 -0.13483 2.6213
5.9805 -0.13483 3.5292
5.9805 0.41584 2.6213
5.9805 0.41584 3.5292
6.0241 0.14051 2.6213
6.0241 0.14051 3.5292
6.0376 -0.15339 2.7662
6.0376 -0.15339 3.3843
6.0376 0.4344 2.7662
6.0376 0.4344 3.3843
6.0724 -0.16471 2.9188
6.0724 -0.16471 3.2317
6.0724 0.44572 2.9188
6.0724 0.44572 3.2317
6.0841 -0.16851 3.0752
6.0841 0.14051 2.7662
6.0841 0.14051 3.3843
6.0841 0.44952 3.0752
6.1208 0.14051 2.9188
6.1208 0.14051 3.2317
6.1331 0.14051 3.0752
2.2426 1.8362 2.7051
2.2426 1.8362 3.0051
2.2426 1.8362 3.2484
2.2426 1.8362 3.3051
2.2426 1.8362 3.5484
2.2426 1.8362 3.6051
2.2426 1.8362 3.8484
2.2426 1.8362 3.9051
2.2426 1.8362 4.1484
2.2426 1.8362 4.2051
2.2426 1.8362 4.4484
2.2426 1.8362 4.5051
2.2426 1.8362 4.7484
2.2426 1.8362 5.0484
2.2426 2.1362 2.7051
2.2426 2.1362 3.0051
2.2426 2.1362 3.2484
2.2426 2.1362 3.3051
2.2426 2.1362 3.5484
2.2426 2.1362 3.6051
2.2426 2.1362 3.8484
2.2426 2.1362 3.9051
2.2426 2.1362 4.1484
2.2426 2.1362 4.2051
2.2426 2.1362 4.4484
2.2426 2.1362 4.5051
2.2426 2.1362 4.7484
2.2426 2.1362 5.0484
2.2426 2.4362 2.7051
2.2426 2.4362 3.0051
2.2426 2.4362 3.2484
2.2426 2.4362 3.3051
2.2426 2.4362 3.5484
2.2426 2.4362 3.6051
2.2426 2.4362 3.8484
2.2426 2.4362 3.9051
2.2426 2.4362 4.1484
2.2426 2.4362 4.2051
2.2426 2.4362 4.4484
2.2426 2.4362 4.5051
2.2426 2.4362 4.7484
2.2426 2.4362 5.0484
2.2426 2.6104 3.2484
2.2426 2.6104 3.5484
2.2426 2.6104 3.8484
2.2426 2.6104 4.1484
2.2426 2.6104 4.4484
2.2426 2.6104 4.7484
2.2426 2.6104 5.0484
2.2426 2.7362 2.7051
2.2426 2.7362 3.0051
2.2426 2.7362 3.2484
2.2426 2.7362 3.3051
2.2426 2.7362 3.5484
2.2426 2.7362 3.6051
2.2426 2.7362 3.8484
2.2426 2.7362 3.9051
2.2426 2.7362 4.1484
2.2426 2.7362 4.2051
2.2426 2.7362 4.4484
2.2426 2.7362 4.5051
2.2426 2.7362 4.7484
2.2426 2.7362 5.0484
2.2426 3.0362 2.7051
2.2426 3.0362 3.0051
2.2426 3.0362 3.2484
2.2426 3.0362 3.3051
2.2426 3.0362 3.5484
2.2426 3.0362 3.6051
2.2426 3.0362 3.8484
2.2426 3.0362 3.9051
2.2426 3.0362 4.1484
2.2426 3.0362 4.2051
2.2426 3.0362 4.4484
2.2426 3.0362 4.5051
2.2426 3.0362 4.7484
2.2426 3.0362 5.0484
2.2426 3.3362 2.7051
2.2426 3.3362 3.0051
2.2426 3.3362 3.2484
2.2426 3.3362 3.3051
2.2426 3.3362 3.5484
2.2426 3.3362 3.6051
2.2426 3.3362 3.8484
2.2426 3.3362 3.9051
2.2426 3.3362 4.1484
2.2426 3.3362 4.2051
2.2426 3.3362 4.4484
2.2426 3.3362 4.5051
2.2426 3.3362 4.7484
2.2426 3.3362 5.0484
2.2426 3.6362 2.7051
2.2426 3.6362 3.0051
2.2426 3.6362 3.2484
2.2426 3.6362 3.3051
2.2426 3.6362 3.5484
2.2426 3.6362 3.6051
2.2426 3.6362 3.8484
2.2426 3.6362 3.9051
2.2426 3.6362 4.1484
2.2426 3.6362 4.2051
2.2426 3.6362 4.4484
2.2426 3.6362 4.5051
2.2426 3.6362 4.7484
2.2426 3.6362 5.0484
2.5426 1.8362 2.7051
2.5426 1.8362 3.0051
2.5426 1.8362 3.2484
2.5426 1.8362 3.3051
2.5426 1.8362 3.5484
2.5426 1.8362 3.6051
2.5426 1.8362 3.8484
2.5426 1.8362 3.9051
2.5426 1.8362 4.1484
2.5426 1.8362 4.2051
2.5426 1.8362 4.4484
2.5426 1.8362 4.5051
2.5426 1.8362 4.7484
2.5426 1.8362 5.0484
2.5426 2.1362 2.7051
2.5426 2.1362 5.0484
2.5426 2.4362 2.7051
2.5426 2.4362 5.0484
2.5426 2.6104 5.0484
2.5426 2.7362 2.7051
2.5426 2.7362 5.0484
2.5426 3.0362 2.7051
2.5426 3.0362 5.0484
2.5426 3.3362 2.7051
2.5426 3.3362 5.0484
2.5426 3.6362 2.7051
2.5426 3.6362 3.0051
2.5426 3.6362 3.2484
2.5426 3.6362 3.3051
2.5426 3.6362 3.5484
2.5426 3.6362 3.6051
2.5426 3.6362 3.8484
2.5426 3.6362 3.9051
2.5426 3.6362 4.1484
2.5426 3.6362 4.2051
2.5426 3.6362 4.4484
2.5426 3.6362 4.5051
2.5426 3.6362 4.7484
2.5426 3.6362 5.0484
2.8426 1.8362 2.7051
2.8426 1.8362 3.0051
2.8426 1.8362 3.2484
2.8426 1.8362 3.3051
2.8426 1.8362 3.5484
2.8426 1.8362 3.6051
2.8426 1.8362 3.8484
2.8426 1.8362 3.9051
2.8426 1.8362 4.1484
2.8426 1.8362 4.2051
2.8426 1.8362 4.4484
2.8426 1.8362 4.5051
2.8426 1.8362 4.7484
2.8426 1.8362 5.0484
2.8426 2.1362 2.7051
2.8426 2.1362 5.0484
2.8426 2.4362 2.7051
2.8426 2.4362 5.0484
2.8426 2.6104 5.0484
2.8426 2.7362 2.7051
2.8426 2.7362 5.0484
2.8426 3.0362 2.7051
2.8426 3.0362 5.0484
2.8426 3.3362 2.7051
2.8426 3.3362 5.0484
2.8426 3.6362 2.7051
2.8426 3.6362 3.0051
2.8426 3.6362 3.2484
2.8426 3.6362 3.3051
2.8426 3.6362 3.5484
2.8426 3.6362 3.6051
2.8426 3.6362 3.8484
2.8426 3.6362 3.9051
2.8426 3.6362 4.1484
2.8426 3.6362 4.2051
2.8426 3.6362 4.4484
2.8426 3.6362 4.5051
2.8426 3.6362 4.7484
2.8426 3.6362 5.0484
3.1426 1.8362 2.7051
3.1426 1.8362 3.0051
3.1426 1.8362 3.2484
3.1426 1.8362 3.3051
3.1426 1.8362 3.5484
3.1426 1.8362 3.6051
3.1426 1.8362 3.8484
3.1426 1.8362 3.9051
3.1426 1.8362 4.1484
3.1426 1.8362 4.2051
3.1426 1.8362 4.4484
3.1426 1.8362 4.5051
3.1426 1.8362 4.7484
3.1426 1.8362 5.0484
3.1426 2.1362 2.7051
3.1426 2.1362 5.0484
3.1426 2.4362 2.7051
3.1426 2.4362 5.0484
3.1426 2.6104 5.0484
3.1426 2.7362 2.7051
3.1426 2.7362 5.0484
3.1426 3.0362 2.7051
3.1426 3.0362 5.0484
3.1426 3.3362 2.7051
3.1426 3.3362 5.0484
3.1426 3.6362 2.7051
3.1426 3.6362 3.0051
3.1426 3.6362 3.2484
3.1426 3.6362 3.3051
3.1426 3.6362 3.5484
3.1426 3.6362 3.6051
3.1426 3.6362 3.8484
3.1426 3.6362 3.9051
3.1426 3.6362 4.1484
3.1426 3.6362 4.2051
3.1426 3.6362 4.4484
3.1426 3.6362 4.5051
3.1426 3.6362 4.7484
3.1426 3.6362 5.0484
3.4426 1.8362 2.7051
3.4426 1.8362 3.0051
3.4426 1.8362 3.2484
3.4426 1.8362 3.3051
3.4426 1.8362 3.5484
3.4426 1.8362 3.6051
3.4426 1.8362 3.8484
3.4426 1.8362 3.9051
3.4426 1.8362 4.1484
3.4426 1.8362 4.2051
3.4426 1.8362 4.4484
3.4426 1.8362 4.5051
3.4426 1.8362 4.7484
3.4426 1.8362 5.0484
3.4426 2.1362 2.7051
3.4426 2.1362 5.0484
3.4426 2.4362 2.7051
3.4426 2.4362 5.0484
3.4426 2.6104 5.0484
3.4426 2.7362 2.7051
3.4426 2.7362 5.0484
3.4426 3.0362 2.7051
3.4426 3.0362 5.0484
3.4426 3.3362 2.7051
3.4426 3.3362 5.0484
3.4426 3.6362 2.7051
3.4426 3.6362 3.0051
3.4426 3.6362 3.2484
3.4426 3.6362 3.3051
3.4426 3.6362 3.5484
3.4426 3.6362 3.6051
3.4426 3.6362 3.8484
3.4426 3.6362 3.9051
3.4426 3.6362 4.1484
3.4426 3.6362 4.2051
3.4426 3.6362 4.4484
3.4426 3.6362 4.5051
3.4426 3.6362 4.7484
3.4426 3.6362 5.0484
3.7426 1.8362 2.7051
3.7426 1.8362 3.0051
3.7426 1.8362 3.2484
3.7426 1.8362 3.3051
3.7426 1.8362 3.5484
3.7426 1.8362 3.6051
3.7426 1.8362 3.8484
3.7426 1.8362 3.9051
3.7426 1.8362 4.1484
3.7426 1.8362 4.2051
3.7426 1.8362 4.4484
3.7426 1.8362 4.5051
3.7426 1.8362 4.7484
3.7426 1.8362 5.0484
3.7426 2.1362 2.7051
3.7426 2.1362 5.0484
3.7426 2.4362 2.7051
3.7426 2.4362 5.0484
3.7426 2.6104 5.0484
3.7426 2.7362 2.7051
3.7426 2.7362 5.0484
3.7426 3.0362 2.7051
3.7426 3.0362 5.0484
3.7426 3.3362 2.7051
3.7426 3.3362 5.0484
3.7426 3.6362 2.7051
3.7426 3.6362 3.0051
3.7426 3.6362 3.2484
3.7426 3.6362 3.3051
3.7426 3.6362 3.5484
3.7426 3.6362 3.6051
3.7426 3.6362 3.8484
3.7426 3.6362 3.9051
3.7426 3.6362 4.1484
3.7426 3.6362 4.2051
3.7426 3.6362 4.4484
3.7426 3.6362 4.5051
3.7426 3.6362 4.7484
3.7426 3.6362 5.0484
4.0426 1.8362 2.7051
4.0426 1.8362 3.0051
4.0426 1.8362 3.2484
4.0426 1.8362 3.3051
4.0426 1.8362 3.5484
4.0426 1.8362 3.6051
4.0426 1.8362 3.8484
4.0426 1.8362 3.9051
4.0426 1.8362 4.1484
4.0426 1.8362 4.2051
4.0426 1.8362 4.4484
4.0426 1.8362 4.5051
4.0426 1.8362 4.7484
4.0426 1.8362 5.0484
4.0426 2.1362 2.7051
4.0426 2.1362 3.0051
4.0426 2.1362 3.2484
4.0426 2.1362 3.3051
4.0426 2.1362 3.5484
4.0426 2.1362 3.6051
4.0426 2.1362 3.8484
4.0426 2.1362 3.9051
4.0426 2.1362 4.1484
4.0426 2.1362 4.2051
4.0426 2.1362 4.4484
4.0426 2.1362 4.5051
4.0426 2.1362 4.7484
4.0426 2.1362 5.0484
4.0426 2.4362 2.7051
4.0426 2.4362 3.0051
4.0426 2.4362 3.2484
4.0426 2.4362 3.3051
4.0426 2.4362 3.5484
4.0426 2.4362 3.6051
4.0426 2.4362 3.8484
4.0426 2.4362 3.9051
4.0426 2.4362 4.1484
4.0426 2.4362 4.2051
4.0426 2.4362 4.4484
4.0426 2.4362 4.5051
4.0426 2.4362 4.7484
4.0426 2.4362 5.0484
4.0426 2.6104 3.2484
4.0426 2.6104 3.5484
4.0426 2.6104 3.8484
4.0426 2.6104 4.1484
4.0426 2.6104 4.4484
4.0426 2.6104 4.7484
4.0426 2.6104 5.0484
4.0426 2.7362 2.7051
4.0426 2.7362 3.0051
4.0426 2.7362 3.2484
4.0426 2.7362 3.3051
4.0426 2.7362 3.5484
4.0426 2.7362 3.6051
4.0426 2.7362 3.8484
4.0426 2.7362 3.9051
4.0426 2.7362 4.1484
4.0426 2.7362 4.2051
4.0426 2.7362 4.4484
4.0426 2.7362 4.5051
4.0426 2.7362 4.7484
4.0426 2.7362 5.0484
4.0426 3.0362 2.7051
4.0426 3.0362 3.0051
4.0426 3.0362 3.2484
4.0426 3.0362 3.3051
4.0426 3.0362 3.5484
4.0426 3.0362 3.6051
4.0426 3.0362 3.8484
4.0426 3.0362 3.9051
4.0426 3.0362 4.1484
4.0426 3.0362 4.2051
4.0426 3.0362 4.4484
4.0426 3.0362 4.5051
4.0426 3.0362 4.7484
4.0426 3.0362 5.0484
4.0426 3.3362 2.7051
4.0426 3.3362 3.0051
4.0426 3.3362 3.2484
4.0426 3.3362 3.3051
4.0426 3.3362 3.5484
4.0426 3.3362 3.6051
4.0426 3.3362 3.8484
4.0426 3.3362 3.9051
4.0426 3.3362 4.1484
4.0426 3.3362 4.2051
4.0426 3.3362 4.4484
4.0426 3.3362 4.5051
4.0426 3.3362 4.7484
4.0426 3.3362 5.0484
4.0426 3.6362 2.7051
4.0426 3.6362 3.0051
4.0426 3.6362 3.2484
4.0426 3.6362 3.3051
4.0426 3.6362 3.5484
4.0426 3.6362 3.6051
4.0426 3.6362 3.8484
4.0426 3.6362 3.9051
4.0426 3.6362 4.1484
4.0426 3.6362 4.2051
4.0426 3.6362 4.4484
4.0426 3.6362 4.5051
4.0426 3.6362 4.7484
4.0426 3.6362 5.0484
