-4.3254 -8.9843 2.2967
-4.3131 -8.9843 2.1403
-4.3131 -8.9843 2.4531
-4.2764 -9.2933 2.2967
-4.2764 -8.9843 1.9877
-4.2764 -8.9843 2.6057
-4.2764 -8.6753 2.2967
-4.2647 -9.2895 2.1403
-4.2647 -9.2895 2.4531
-4.2647 -8.6791 2.1403
-4.2647 -8.6791 2.4531
-4.2299 -9.2782 1.9877
-4.2299 -9.2782 2.6057
-4.2299 -8.6904 1.9877
-4.2299 -8.6904 2.6057
-4.2164 -8.9843 1.8427
-4.2164 -8.9843 2.7507
-4.1728 -9.2596 1.8427
-4.1728 -9.2596 2.7507
-4.1728 -8.709 1.8427
-4.1728 -8.709 2.7507
-4.1344 -8.9843 1.7089
-4.1344 -8.9843 2.8845
-4.1344 -9.5721 2.2967
-4.1344 -8.3965 2.2967
-4.1244 -9.5649 2.1403
-4.1244 -9.5649 2.4531
-4.1244 -8.4038 2.1403
-4.1244 -8.4038 2.4531
-4.0948 -9.2343 1.7089
-4.0948 -9.2343 2.8845
-4.0948 -8.7343 1.7089
-4.0948 -8.7343 2.8845
-4.0948 -9.5433 1.9877
-4.0948 -9.5433 2.6057
-4.0948 -8.4253 1.9877
-4.0948 -8.4253 2.6057
-4.0462 -9.508 1.8427
-4.0462 -9.508 2.7507
-4.0462 -8.4606 1.8427
-4.0462 -8.4606 2.7507
-4.0325 -8.9843 1.5896
-4.0325 -8.9843 3.0038
-3.9979 -9.2028 1.5896
-3.9979 -9.2028 3.0038
-3.9979 -8.7658 1.5896
-3.9979 -8.7658 3.0038
-3.9799 -9.4598 1.7089
-3.9799 -9.4598 2.8845
-3.9799 -8.5088 1.7089
-3.9799 -8.5088 2.8845
-3.9132 -8.9843 1.4877
-3.9132 -8.9843 3.1057
-3.9132 -9.7933 2.2967
-3.9132 -8.1753 2.2967
-3.9059 -9.7834 2.1403
-3.9059 -9.7834 2.4531
-3.9059 -8.1853 2.1403
-3.9059 -8.1853 2.4531
-3.8975 -9.3999 1.5896
-3.8975 -9.3999 3.0038
-3.8975 -8.5687 1.5896
-3.8975 -8.5687 3.0038
-3.8844 -9.1659 1.4877
-3.8844 -9.1659 3.1057
-3.8844 -8.8027 1.4877
-3.8844 -8.8027 3.1057
-3.8844 -9.7537 1.9877
-3.8844 -9.7537 2.6057
-3.8844 -8.2149 1.9877
-3.8844 -8.2149 2.6057
-3.8491 -9.7051 1.8427
-3.8491 -9.7051 2.7507
-3.8491 -8.2635 1.8427
-3.8491 -8.2635 2.7507
-3.8009 -9.3298 1.4877
-3.8009 -9.3298 3.1057
-3.8009 -8.6388 1.4877
-3.8009 -8.6388 3.1057
-3.8009 -9.6388 1.7089
-3.8009 -9.6388 2.8845
-3.8009 -8.3298 1.7089
-3.8009 -8.3298 2.8845
-3.7794 -8.9843 1.4057
-3.7794 -8.9843 3.1877
-3.7572 -9.1246 1.4057
-3.7572 -9.1246 3.1877
-3.7572 -8.844 1.4057
-3.7572 -8.844 3.1877
-3.741 -9.5564 1.5896
-3.741 -9.5564 3.0038
-3.741 -8.4122 1.5896
-3.741 -8.4122 3.0038
-3.6927 -9.2512 1.4057
-3.6927 -9.2512 3.1877
-3.6927 -8.7175 1.4057
-3.6927 -8.7175 3.1877
-3.6709 -9.4598 1.4877
-3.6709 -9.4598 3.1057
-3.6709 -8.5088 1.4877
-3.6709 -8.5088 3.1057
-3.6344 -8.9843 1.3457
-3.6344 -8.9843 3.2478
-3.6344 -9.9354 2.2967
-3.6344 -8.0333 2.2967
-3.6306 -9.9237 2.1403
-3.6306 -9.9237 2.4531
-3.6306 -8.045 2.1403
-3.6306 -8.045 2.4531
-3.6193 -9.0798 1.3457
-3.6193 -9.0798 3.2478
-3.6193 -8.8888 1.3457
-3.6193 -8.8888 3.2478
-3.6193 -9.8888 1.9877
-3.6193 -9.8888 2.6057
-3.6193 -8.0798 1.9877
-3.6193 -8.0798 2.6057
-3.6007 -9.8317 1.8427
-3.6007 -9.8317 2.7507
-3.6007 -8.1369 1.8427
-3.6007 -8.1369 2.7507
-3.5922 -9.3516 1.4057
-3.5922 -9.3516 3.1877
-3.5922 -8.617 1.4057
-3.5922 -8.617 3.1877
-3.5754 -9.1659 1.3457
-3.5754 -9.1659 3.2478
-3.5754 -8.8027 1.3457
-3.5754 -8.8027 3.2478
-3.5754 -9.7537 1.7089
-3.5754 -9.7537 2.8845
-3.5754 -8.2149 1.7089
-3.5754 -8.2149 2.8845
-3.5439 -9.6568 1.5896
-3.5439 -9.6568 3.0038
-3.5439 -8.3118 1.5896
-3.5439 -8.3118 3.0038
-3.507 -9.2343 1.3457
-3.507 -9.2343 3.2478
-3.507 -8.7343 1.3457
-3.507 -8.7343 3.2478
-3.507 -9.5433 1.4877
-3.507 -9.5433 3.1057
-3.507 -8.4253 1.4877
-3.507 -8.4253 3.1057
-3.4818 -8.9843 1.309
-3.4818 -8.9843 3.2844
-3.4742 -9.0327 1.309
-3.4742 -9.0327 3.2844
-3.4742 -8.936 1.309
-3.4742 -8.936 3.2844
-3.4657 -9.4161 1.4057
-3.4657 -9.4161 3.1877
-3.4657 -8.5525 1.4057
-3.4657 -8.5525 3.1877
-3.452 -9.0763 1.309
-3.452 -9.0763 3.2844
-3.452 -8.8924 1.309
-3.452 -8.8924 3.2844
-3.4209 -9.2782 1.3457
-3.4209 -9.2782 3.2478
-3.4209 -8.6904 1.3457
-3.4209 -8.6904 3.2478
-3.4173 -9.1109 1.309
-3.4173 -9.1109 3.2844
-3.4173 -8.8578 1.309
-3.4173 -8.8578 3.2844
-3.3737 -9.1331 1.309
-3.3737 -9.1331 3.2844
-3.3737 -8.8355 1.309
-3.3737 -8.8355 3.2844
-3.3254 -8.9843 1.2967
-3.3254 -8.9843 3.2967
-3.3254 -9.1407 1.309
-3.3254 -9.1407 3.2844
-3.3254 -8.8279 1.309
-3.3254 -8.8279 3.2844
-3.3254 -9.2933 1.3457
-3.3254 -9.2933 3.2478
-3.3254 -8.6753 1.3457
-3.3254 -8.6753 3.2478
-3.3254 -9.4383 1.4057
-3.3254 -9.4383 3.1877
-3.3254 -8.5303 1.4057
-3.3254 -8.5303 3.1877
-3.3254 -9.5721 1.4877
-3.3254 -9.5721 3.1057
-3.3254 -8.3965 1.4877
-3.3254 -8.3965 3.1057
-3.3254 -9.6914 1.5896
-3.3254 -9.6914 3.0038
-3.3254 -8.2772 1.5896
-3.3254 -8.2772 3.0038
-3.3254 -9.7933 1.7089
-3.3254 -9.7933 2.8845
-3.3254 -8.1753 1.7089
-3.3254 -8.1753 2.8845
-3.3254 -9.8753 1.8427
-3.3254 -9.8753 2.7507
-3.3254 -8.0933 1.8427
-3.3254 -8.0933 2.7507
-3.3254 -9.9354 1.9877
-3.3254 -9.9354 2.6057
-3.3254 -8.0333 1.9877
-3.3254 -8.0333 2.6057
-3.3254 -9.972 2.1403
-3.3254 -9.972 2.4531
-3.3254 -7.9966 2.1403
-3.3254 -7.9966 2.4531
-3.3254 -9.9843 2.2967
-3.3254 -7.9843 2.2967
-3.2771 -9.1331 1.309
-3.2771 -9.1331 3.2844
-3.2771 -8.8355 1.309
-3.2771 -8.8355 3.2844
-3.2334 -9.1109 1.309
-3.2334 -9.1109 3.2844
-3.2334 -8.8578 1.309
-3.2334 -8.8578 3.2844
-3.2299 -9.2782 1.3457
-3.2299 -9.2782 3.2478
-3.2299 -8.6904 1.3457
-3.2299 -8.6904 3.2478
-3.1988 -9.0763 1.309
-3.1988 -9.0763 3.2844
-3.1988 -8.8924 1.309
-3.1988 -8.8924 3.2844
-3.1851 -9.4161 1.4057
-3.1851 -9.4161 3.1877
-3.1851 -8.5525 1.4057
-3.1851 -8.5525 3.1877
-3.1766 -9.0327 1.309
-3.1766 -9.0327 3.2844
-3.1766 -8.936 1.309
-3.1766 -8.936 3.2844
-3.169 -8.9843 1.309
-3.169 -8.9843 3.2844
-3.1438 -9.5433 1.4877
-3.1438 -9.5433 3.1057
-3.1438 -9.2343 1.3457
-3.1438 -9.2343 3.2478
-3.1438 -8.7343 1.3457
-3.1438 -8.7343 3.2478
-3.1438 -8.4253 1.4877
-3.1438 -8.4253 3.1057
-3.1069 -9.6568 1.5896
-3.1069 -9.6568 3.0038
-3.1069 -8.3118 1.5896
-3.1069 -8.3118 3.0038
-3.0754 -9.7537 1.7089
-3.0754 -9.7537 2.8845
-3.0754 -9.1659 1.3457
-3.0754 -9.1659 3.2478
-3.0754 -8.8027 1.3457
-3.0754 -8.8027 3.2478
-3.0754 -8.2149 1.7089
-3.0754 -8.2149 2.8845
-3.0585 -9.3516 1.4057
-3.0585 -9.3516 3.1877
-3.0585 -8.617 1.4057
-3.0585 -8.617 3.1877
-3.0501 -9.8317 1.8427
-3.0501 -9.8317 2.7507
-3.0501 -8.1369 1.8427
-3.0501 -8.1369 2.7507
-3.0315 -9.8888 1.9877
-3.0315 -9.8888 2.6057
-3.0315 -9.0798 1.3457
-3.0315 -9.0798 3.2478
-3.0315 -8.8888 1.3457
-3.0315 -8.8888 3.2478
-3.0315 -8.0798 1.9877
-3.0315 -8.0798 2.6057
-3.0202 -9.9237 2.1403
-3.0202 -9.9237 2.4531
-3.0202 -8.045 2.1403
-3.0202 -8.045 2.4531
-3.0164 -9.9354 2.2967
-3.0164 -8.9843 1.3457
-3.0164 -8.9843 3.2478
-3.0164 -8.0333 2.2967
-2.9799 -9.4598 1.4877
-2.9799 -9.4598 3.1057
-2.9799 -8.5088 1.4877
-2.9799 -8.5088 3.1057
-2.9581 -9.2512 1.4057
-2.9581 -9.2512 3.1877
-2.9581 -8.7175 1.4057
-2.9581 -8.7175 3.1877
-2.9098 -9.5564 1.5896
-2.9098 -9.5564 3.0038
-2.9098 -8.4122 1.5896
-2.9098 -8.4122 3.0038
-2.8936 -9.1246 1.4057
-2.8936 -9.1246 3.1877
-2.8936 -8.844 1.4057
-2.8936 -8.844 3.1877
-2.8714 -8.9843 1.4057
-2.8714 -8.9843 3.1877
-2.8499 -9.6388 1.7089
-2.8499 -9.6388 2.8845
-2.8499 -9.3298 1.4877
-2.8499 -9.3298 3.1057
-2.8499 -8.6388 1.4877
-2.8499 -8.6388 3.1057
-2.8499 -8.3298 1.7089
-2.8499 -8.3298 2.8845
-2.8017 -9.7051 1.8427
-2.8017 -9.7051 2.7507
-2.8017 -8.2635 1.8427
-2.8017 -8.2635 2.7507
-2.7664 -9.7537 1.9877
-2.7664 -9.7537 2.6057
-2.7664 -9.1659 1.4877
-2.7664 -9.1659 3.1057
-2.7664 -8.8027 1.4877
-2.7664 -8.8027 3.1057
-2.7664 -8.2149 1.9877
-2.7664 -8.2149 2.6057
-2.7533 -9.3999 1.5896
-2.7533 -9.3999 3.0038
-2.7533 -8.5687 1.5896
-2.7533 -8.5687 3.0038
-2.7448 -9.7834 2.1403
-2.7448 -9.7834 2.4531
-2.7448 -8.1853 2.1403
-2.7448 -8.1853 2.4531
-2.7376 -9.7933 2.2967
-2.7376 -8.9843 1.4877
-2.7376 -8.9843 3.1057
-2.7376 -8.1753 2.2967
-2.6709 -9.4598 1.7089
-2.6709 -9.4598 2.8845
-2.6709 -8.5088 1.7089
-2.6709 -8.5088 2.8845
-2.6529 -9.2028 1.5896
-2.6529 -9.2028 3.0038
-2.6529 -8.7658 1.5896
-2.6529 -8.7658 3.0038
-2.6183 -8.9843 1.5896
-2.6183 -8.9843 3.0038
-2.6046 -9.508 1.8427
-2.6046 -9.508 2.7507
-2.6046 -8.4606 1.8427
-2.6046 -8.4606 2.7507
-2.556 -9.5433 1.9877
-2.556 -9.5433 2.6057
-2.556 -9.2343 1.7089
-2.556 -9.2343 2.8845
-2.556 -8.7343 1.7089
-2.556 -8.7343 2.8845
-2.556 -8.4253 1.9877
-2.556 -8.4253 2.6057
-2.5263 -9.5649 2.1403
-2.5263 -9.5649 2.4531
-2.5263 -8.4038 2.1403
-2.5263 -8.4038 2.4531
-2.5164 -9.5721 2.2967
-2.5164 -8.9843 1.7089
-2.5164 -8.9843 2.8845
-2.5164 -8.3965 2.2967
-2.478 -9.2596 1.8427
-2.478 -9.2596 2.7507
-2.478 -8.709 1.8427
-2.478 -8.709 2.7507
-2.4344 -8.9843 1.8427
-2.4344 -8.9843 2.7507
-2.4209 -9.2782 1.9877
-2.4209 -9.2782 2.6057
-2.4209 -8.6904 1.9877
-2.4209 -8.6904 2.6057
-2.386 -9.2895 2.1403
-2.386 -9.2895 2.4531
-2.386 -8.6791 2.1403
-2.386 -8.6791 2.4531
-2.3743 -9.2933 2.2967
-2.3743 -8.9843 1.9877
-2.3743 -8.9843 2.6057
-2.3743 -8.6753 2.2967
-2.3377 -8.9843 2.1403
-2.3377 -8.9843 2.4531
-2.3254 -8.9843 2.2967
