1.6189 -2.2269 2.5388
1.6189 -2.2269 2.8388
1.6189 -2.2269 3.1388
1.6189 -2.2269 3.1591
1.6189 -2.2269 3.4388
1.6189 -2.2269 3.4591
1.6189 -2.2269 3.7388
1.6189 -2.2269 3.7591
1.6189 -2.2269 4.0388
1.6189 -2.2269 4.0591
1.6189 -2.2269 4.3388
1.6189 -2.2269 4.3591
1.6189 -2.2269 4.6591
1.6189 -2.2269 4.9591
1.6189 -1.9269 2.5388
1.6189 -1.9269 2.8388
1.6189 -1.9269 3.1388
1.6189 -1.9269 3.1591
1.6189 -1.9269 3.4388
1.6189 -1.9269 3.4591
1.6189 -1.9269 3.7388
1.6189 -1.9269 3.7591
1.6189 -1.9269 4.0388
1.6189 -1.9269 4.0591
1.6189 -1.9269 4.3388
1.6189 -1.9269 4.3591
1.6189 -1.9269 4.6591
1.6189 -1.9269 4.9591
1.6189 -1.6269 2.5388
1.6189 -1.6269 2.8388
1.6189 -1.6269 3.1388
1.6189 -1.6269 3.1591
1.6189 -1.6269 3.4388
1.6189 -1.6269 3.4591
1.6189 -1.6269 3.7388
1.6189 -1.6269 3.7591
1.6189 -1.6269 4.0388
1.6189 -1.6269 4.0591
1.6189 -1.6269 4.3388
1.6189 -1.6269 4.3591
1.6189 -1.6269 4.6591
1.6189 -1.6269 4.9591
1.6189 -1.3269 2.5388
1.6189 -1.3269 2.8388
1.6189 -1.3269 3.1388
1.6189 -1.3269 3.1591
1.6189 -1.3269 3.4388
1.6189 -1.3269 3.4591
1.6189 -1.3269 3.7388
1.6189 -1.3269 3.7591
1.6189 -1.3269 4.0388
1.6189 -1.3269 4.0591
1.6189 -1.3269 4.3388
1.6189 -1.3269 4.3591
1.6189 -1.3269 4.6591
1.6189 -1.3269 4.9591
1.6189 -1.0269 2.5388
1.6189 -1.0269 2.8388
1.6189 -1.0269 3.1388
1.6189 -1.0269 3.1591
1.6189 -1.0269 3.4388
1.6189 -1.0269 3.4591
1.6189 -1.0269 3.7388
1.6189 -1.0269 3.7591
1.6189 -1.0269 4.0388
1.6189 -1.0269 4.0591
1.6189 -1.0269 4.3388
1.6189 -1.0269 4.3591
1.6189 -1.0269 4.6591
1.6189 -1.0269 4.9591
1.6189 -0.82207 2.5388
1.6189 -0.82207 2.8388
1.6189 -0.82207 3.1388
1.6189 -0.82207 3.4388
1.6189 -0.82207 3.7388
1.6189 -0.82207 4.0388
1.6189 -0.82207 4.3388
1.6189 -0.72689 2.5388
1.6189 -0.72689 2.8388
1.6189 -0.72689 3.1388
1.6189 -0.72689 3.1591
1.6189 -0.72689 3.4388
1.6189 -0.72689 3.4591
1.6189 -0.72689 3.7388
1.6189 -0.72689 3.7591
1.6189 -0.72689 4.0388
1.6189 -0.72689 4.0591
1.6189 -0.72689 4.3388
1.6189 -0.72689 4.3591
1.6189 -0.72689 4.6591
1.6189 -0.72689 4.9591
1.6189 -0.42689 2.5388
1.6189 -0.42689 2.8388
1.6189 -0.42689 3.1388
1.6189 -0.42689 3.1591
1.6189 -0.42689 3.4388
1.6189 -0.42689 3.4591
1.6189 -0.42689 3.7388
1.6189 -0.42689 3.7591
1.6189 -0.42689 4.0388
1.6189 -0.42689 4.0591
1.6189 -0.42689 4.3388
1.6189 -0.42689 4.3591
1.6189 -0.42689 4.6591
1.6189 -0.42689 4.9591
1.9189 -2.2269 2.5388
1.9189 -2.2269 2.8388
1.9189 -2.2269 3.1388
1.9189 -2.2269 3.1591
1.9189 -2.2269 3.4388
1.9189 -2.2269 3.4591
1.9189 -2.2269 3.7388
1.9189 -2.2269 3.7591
1.9189 -2.2269 4.0388
1.9189 -2.2269 4.0591
1.9189 -2.2269 4.3388
1.9189 -2.2269 4.3591
1.9189 -2.2269 4.6591
1.9189 -2.2269 4.9591
1.9189 -1.9269 2.5388
1.9189 -1.9269 4.9591
1.9189 -1.6269 2.5388
1.9189 -1.6269 4.9591
1.9189 -1.3269 2.5388
1.9189 -1.3269 4.9591
1.9189 -1.0269 2.5388
1.9189 -1.0269 4.9591
1.9189 -0.82207 2.5388
1.9189 -0.72689 2.5388
1.9189 -0.72689 4.9591
1.9189 -0.42689 2.5388
1.9189 -0.42689 2.8388
1.9189 -0.42689 3.1388
1.9189 -0.42689 3.1591
1.9189 -0.42689 3.4388
1.9189 -0.42689 3.4591
1.9189 -0.42689 3.7388
1.9189 -0.42689 3.7591
1.9189 -0.42689 4.0388
1.9189 -0.42689 4.0591
1.9189 -0.42689 4.3388
1.9189 -0.42689 4.3591
1.9189 -0.42689 4.6591
1.9189 -0.42689 4.9591
2.2189 -2.2269 2.5388
2.2189 -2.2269 2.8388
2.2189 -2.2269 3.1388
2.2189 -2.2269 3.1591
2.2189 -2.2269 3.4388
2.2189 -2.2269 3.4591
2.2189 -2.2269 3.7388
2.2189 -2.2269 3.7591
2.2189 -2.2269 4.0388
2.2189 -2.2269 4.0591
2.2189 -2.2269 4.3388
2.2189 -2.2269 4.3591
2.2189 -2.2269 4.6591
2.2189 -2.2269 4.9591
2.2189 -1.9269 2.5388
2.2189 -1.9269 4.9591
2.2189 -1.6269 2.5388
2.2189 -1.6269 4.9591
2.2189 -1.3269 2.5388
2.2189 -1.3269 4.9591
2.2189 -1.0269 2.5388
2.2189 -1.0269 4.9591
2.2189 -0.82207 2.5388
2.2189 -0.72689 2.5388
2.2189 -0.72689 4.9591
2.2189 -0.42689 2.5388
2.2189 -0.42689 2.8388
2.2189 -0.42689 3.1388
2.2189 -0.42689 3.1591
2.2189 -0.42689 3.4388
2.2189 -0.42689 3.4591
2.2189 -0.42689 3.7388
2.2189 -0.42689 3.7591
2.2189 -0.42689 4.0388
2.2189 -0.42689 4.0591
2.2189 -0.42689 4.3388
2.2189 -0.42689 4.3591
2.2189 -0.42689 4.6591
2.2189 -0.42689 4.9591
2.5189 -2.2269 2.5388
2.5189 -2.2269 2.8388
2.5189 -2.2269 3.1388
2.5189 -2.2269 3.1591
2.5189 -2.2269 3.4388
2.5189 -2.2269 3.4591
2.5189 -2.2269 3.7388
2.5189 -2.2269 3.7591
2.5189 -2.2269 4.0388
2.5189 -2.2269 4.0591
2.5189 -2.2269 4.3388
2.5189 -2.2269 4.3591
2.5189 -2.2269 4.6591
2.5189 -2.2269 4.9591
2.5189 -1.9269 2.5388
2.5189 -1.9269 4.9591
2.5189 -1.6269 2.5388
2.5189 -1.6269 4.9591
2.5189 -1.3269 2.5388
2.5189 -1.3269 4.9591
2.5189 -1.0269 2.5388
2.5189 -1.0269 4.9591
2.5189 -0.82207 2.5388
2.5189 -0.72689 2.5388
2.5189 -0.72689 4.9591
2.5189 -0.42689 2.5388
2.5189 -0.42689 2.8388
2.5189 -0.42689 3.1388
2.5189 -0.42689 3.1591
2.5189 -0.42689 3.4388
2.5189 -0.42689 3.4591
2.5189 -0.42689 3.7388
2.5189 -0.42689 3.7591
2.5189 -0.42689 4.0388
2.5189 -0.42689 4.0591
2.5189 -0.42689 4.3388
2.5189 -0.42689 4.3591
2.5189 -0.42689 4.6591
2.5189 -0.42689 4.9591
2.8189 -2.2269 2.5388
2.8189 -2.2269 2.8388
2.8189 -2.2269 3.1388
2.8189 -2.2269 3.1591
2.8189 -2.2269 3.4388
2.8189 -2.2269 3.4591
2.8189 -2.2269 3.7388
2.8189 -2.2269 3.7591
2.8189 -2.2269 4.0388
2.8189 -2.2269 4.0591
2.8189 -2.2269 4.3388
2.8189 -2.2269 4.3591
2.8189 -2.2269 4.6591
2.8189 -2.2269 4.9591
2.8189 -1.9269 2.5388
2.8189 -1.9269 4.9591
2.8189 -1.6269 2.5388
2.8189 -1.6269 4.9591
2.8189 -1.3269 2.5388
2.8189 -1.3269 4.9591
2.8189 -1.0269 2.5388
2.8189 -1.0269 4.9591
2.8189 -0.82207 2.5388
2.8189 -0.72689 2.5388
2.8189 -0.72689 4.9591
2.8189 -0.42689 2.5388
2.8189 -0.42689 2.8388
2.8189 -0.42689 3.1388
2.8189 -0.42689 3.1591
2.8189 -0.42689 3.4388
2.8189 -0.42689 3.4591
2.8189 -0.42689 3.7388
2.8189 -0.42689 3.7591
2.8189 -0.42689 4.0388
2.8189 -0.42689 4.0591
2.8189 -0.42689 4.3388
2.8189 -0.42689 4.3591
2.8189 -0.42689 4.6591
2.8189 -0.42689 4.9591
3.1189 -2.2269 2.5388
3.1189 -2.2269 2.8388
3.1189 -2.2269 3.1388
3.1189 -2.2269 3.1591
3.1189 -2.2269 3.4388
3.1189 -2.2269 3.4591
3.1189 -2.2269 3.7388
3.1189 -2.2269 3.7591
3.1189 -2.2269 4.0388
3.1189 -2.2269 4.0591
3.1189 -2.2269 4.3388
3.1189 -2.2269 4.3591
3.1189 -2.2269 4.6591
3.1189 -2.2269 4.9591
3.1189 -1.9269 2.5388
3.1189 -1.9269 4.9591
3.1189 -1.6269 2.5388
3.1189 -1.6269 4.9591
3.1189 -1.3269 2.5388
3.1189 -1.3269 4.9591
3.1189 -1.0269 2.5388
3.1189 -1.0269 4.9591
3.1189 -0.82207 2.5388
3.1189 -0.72689 2.5388
3.1189 -0.72689 4.9591
3.1189 -0.42689 2.5388
3.1189 -0.42689 2.8388
3.1189 -0.42689 3.1388
3.1189 -0.42689 3.1591
3.1189 -0.42689 3.4388
3.1189 -0.42689 3.4591
3.1189 -0.42689 3.7388
3.1189 -0.42689 3.7591
3.1189 -0.42689 4.0388
3.1189 -0.42689 4.0591
3.1189 -0.42689 4.3388
3.1189 -0.42689 4.3591
3.1189 -0.42689 4.6591
3.1189 -0.42689 4.9591
3.4189 -2.2269 2.5388
3.4189 -2.2269 2.8388
3.4189 -2.2269 3.1388
3.4189 -2.2269 3.1591
3.4189 -2.2269 3.4388
3.4189 -2.2269 3.4591
3.4189 -2.2269 3.7388
3.4189 -2.2269 3.7591
3.4189 -2.2269 4.0388
3.4189 -2.2269 4.0591
3.4189 -2.2269 4.3388
3.4189 -2.2269 4.3591
3.4189 -2.2269 4.6591
3.4189 -2.2269 4.9591
3.4189 -1.9269 2.5388
3.4189 -1.9269 2.8388
3.4189 -1.9269 3.1388
3.4189 -1.9269 3.1591
3.4189 -1.9269 3.4388
3.4189 -1.9269 3.4591
3.4189 -1.9269 3.7388
3.4189 -1.9269 3.7591
3.4189 -1.9269 4.0388
3.4189 -1.9269 4.0591
3.4189 -1.9269 4.3388
3.4189 -1.9269 4.3591
3.4189 -1.9269 4.6591
3.4189 -1.9269 4.9591
3.4189 -1.6269 2.5388
3.4189 -1.6269 2.8388
3.4189 -1.6269 3.1388
3.4189 -1.6269 3.1591
3.4189 -1.6269 3.4388
3.4189 -1.6269 3.4591
3.4189 -1.6269 3.7388
3.4189 -1.6269 3.7591
3.4189 -1.6269 4.0388
3.4189 -1.6269 4.0591
3.4189 -1.6269 4.3388
3.4189 -1.6269 4.3591
3.4189 -1.6269 4.6591
3.4189 -1.6269 4.9591
3.4189 -1.3269 2.5388
3.4189 -1.3269 2.8388
3.4189 -1.3269 3.1388
3.4189 -1.3269 3.1591
3.4189 -1.3269 3.4388
3.4189 -1.3269 3.4591
3.4189 -1.3269 3.7388
3.4189 -1.3269 3.7591
3.4189 -1.3269 4.0388
3.4189 -1.3269 4.0591
3.4189 -1.3269 4.3388
3.4189 -1.3269 4.3591
3.4189 -1.3269 4.6591
3.4189 -1.3269 4.9591
3.4189 -1.0269 2.5388
3.4189 -1.0269 2.8388
3.4189 -1.0269 3.1388
3.4189 -1.0269 3.1591
3.4189 -1.0269 3.4388
3.4189 -1.0269 3.4591
3.4189 -1.0269 3.7388
3.4189 -1.0269 3.7591
3.4189 -1.0269 4.0388
3.4189 -1.0269 4.0591
3.4189 -1.0269 4.3388
3.4189 -1.0269 4.3591
3.4189 -1.0269 4.6591
3.4189 -1.0269 4.9591
3.4189 -0.82207 2.5388
3.4189 -0.82207 2.8388
3.4189 -0.82207 3.1388
3.4189 -0.82207 3.4388
3.4189 -0.82207 3.7388
3.4189 -0.82207 4.0388
3.4189 -0.82207 4.3388
3.4189 -0.72689 2.5388
3.4189 -0.72689 2.8388
3.4189 -0.72689 3.1388
3.4189 -0.72689 3.1591
3.4189 -0.72689 3.4388
3.4189 -0.72689 3.4591
3.4189 -0.72689 3.7388
3.4189 -0.72689 3.7591
3.4189 -0.72689 4.0388
3.4189 -0.72689 4.0591
3.4189 -0.72689 4.3388
3.4189 -0.72689 4.3591
3.4189 -0.72689 4.6591
3.4189 -0.72689 4.9591
3.4189 -0.42689 2.5388
3.4189 -0.42689 2.8388
3.4189 -0.42689 3.1388
3.4189 -0.42689 3.1591
3.4189 -0.42689 3.4388
3.4189 -0.42689 3.4591
3.4189 -0.42689 3.7388
3.4189 -0.42689 3.7591
3.4189 -0.42689 4.0388
3.4189 -0.42689 4.0591
3.4189 -0.42689 4.3388
3.4189 -0.42689 4.3591
3.4189 -0.42689 4.6591
3.4189 -0.42689 4.9591
