8.1539 7.7975 3.1688
8.1539 7.7975 3.2047
8.1539 7.7975 3.4688
8.1539 7.7975 3.5047
8.1539 7.7975 3.7688
8.1539 7.7975 3.8047
8.1539 7.7975 4.0688
8.1539 7.7975 4.1047
8.1539 7.7975 4.3688
8.1539 7.7975 4.4047
8.1539 7.7975 4.6688
8.1539 7.7975 4.7047
8.1539 7.7975 4.9688
8.1539 7.7975 5.0047
8.1539 7.9867 3.1688
8.1539 7.9867 3.4688
8.1539 7.9867 3.7688
8.1539 7.9867 4.0688
8.1539 7.9867 4.3688
8.1539 7.9867 4.6688
8.1539 7.9867 4.9688
8.1539 8.0975 3.1688
8.1539 8.0975 3.2047
8.1539 8.0975 3.4688
8.1539 8.0975 3.5047
8.1539 8.0975 3.7688
8.1539 8.0975 3.8047
8.1539 8.0975 4.0688
8.1539 8.0975 4.1047
8.1539 8.0975 4.3688
8.1539 8.0975 4.4047
8.1539 8.0975 4.6688
8.1539 8.0975 4.7047
8.1539 8.0975 4.9688
8.1539 8.0975 5.0047
8.1539 8.3975 3.1688
8.1539 8.3975 3.2047
8.1539 8.3975 3.4688
8.1539 8.3975 3.5047
8.1539 8.3975 3.7688
8.1539 8.3975 3.8047
8.1539 8.3975 4.0688
8.1539 8.3975 4.1047
8.1539 8.3975 4.3688
8.1539 8.3975 4.4047
8.1539 8.3975 4.6688
8.1539 8.3975 4.7047
8.1539 8.3975 4.9688
8.1539 8.3975 5.0047
8.1539 8.6975 3.1688
8.1539 8.6975 3.2047
8.1539 8.6975 3.4688
8.1539 8.6975 3.5047
8.1539 8.6975 3.7688
8.1539 8.6975 3.8047
8.1539 8.6975 4.0688
8.1539 8.6975 4.1047
8.1539 8.6975 4.3688
8.1539 8.6975 4.4047
8.1539 8.6975 4.6688
8.1539 8.6975 4.7047
8.1539 8.6975 4.9688
8.1539 8.6975 5.0047
8.1539 8.9975 3.1688
8.1539 8.9975 3.2047
8.1539 8.9975 3.4688
8.1539 8.9975 3.5047
8.1539 8.9975 3.7688
8.1539 8.9975 3.8047
8.1539 8.9975 4.0688
8.1539 8.9975 4.1047
8.1539 8.9975 4.3688
8.1539 8.9975 4.4047
8.1539 8.9975 4.6688
8.1539 8.9975 4.7047
8.1539 8.9975 4.9688
8.1539 8.9975 5.0047
8.1539 9.2975 3.1688
8.1539 9.2975 3.2047
8.1539 9.2975 3.4688
8.1539 9.2975 3.5047
8.1539 9.2975 3.7688
8.1539 9.2975 3.8047
8.1539 9.2975 4.0688
8.1539 9.2975 4.1047
8.1539 9.2975 4.3688
8.1539 9.2975 4.4047
8.1539 9.2975 4.6688
8.1539 9.2975 4.7047
8.1539 9.2975 4.9688
8.1539 9.2975 5.0047
8.1539 9.5975 3.1688
8.1539 9.5975 3.2047
8.1539 9.5975 3.4688
8.1539 9.5975 3.5047
8.1539 9.5975 3.7688
8.1539 9.5975 3.8047
8.1539 9.5975 4.0688
8.1539 9.5975 4.1047
8.1539 9.5975 4.3688
8.1539 9.5975 4.4047
8.1539 9.5975 4.6688
8.1539 9.5975 4.7047
8.1539 9.5975 4.9688
8.1539 9.5975 5.0047
8.4539 7.7975 3.1688
8.4539 7.7975 3.2047
8.4539 7.7975 3.4688
8.4539 7.7975 3.5047
8.4539 7.7975 3.7688
8.4539 7.7975 3.8047
8.4539 7.7975 4.0688
8.4539 7.7975 4.1047
8.4539 7.7975 4.3688
8.4539 7.7975 4.4047
8.4539 7.7975 4.6688
8.4539 7.7975 4.7047
8.4539 7.7975 4.9688
8.4539 7.7975 5.0047
8.4539 7.9867 3.1688
8.4539 8.0975 3.1688
8.4539 8.0975 5.0047
8.4539 8.3975 3.1688
8.4539 8.3975 5.0047
8.4539 8.6975 3.1688
8.4539 8.6975 5.0047
8.4539 8.9975 3.1688
8.4539 8.9975 5.0047
8.4539 9.2975 3.1688
8.4539 9.2975 5.0047
8.4539 9.5975 3.1688
8.4539 9.5975 3.2047
8.4539 9.5975 3.4688
8.4539 9.5975 3.5047
8.4539 9.5975 3.7688
8.4539 9.5975 3.8047
8.4539 9.5975 4.0688
8.4539 9.5975 4.1047
8.4539 9.5975 4.3688
8.4539 9.5975 4.4047
8.4539 9.5975 4.6688
8.4539 9.5975 4.7047
8.4539 9.5975 4.9688
8.4539 9.5975 5.0047
8.7539 7.7975 3.1688
8.7539 7.7975 3.2047
8.7539 7.7975 3.4688
8.7539 7.7975 3.5047
8.7539 7.7975 3.7688
8.7539 7.7975 3.8047
8.7539 7.7975 4.0688
8.7539 7.7975 4.1047
8.7539 7.7975 4.3688
8.7539 7.7975 4.4047
8.7539 7.7975 4.6688
8.7539 7.7975 4.7047
8.7539 7.7975 4.9688
8.7539 7.7975 5.0047
8.7539 7.9867 3.1688
8.7539 8.0975 3.1688
8.7539 8.0975 5.0047
8.7539 8.3975 3.1688
8.7539 8.3975 5.0047
8.7539 8.6975 3.1688
8.7539 8.6975 5.0047
8.7539 8.9975 3.1688
8.7539 8.9975 5.0047
8.7539 9.2975 3.1688
8.7539 9.2975 5.0047
8.7539 9.5975 3.1688
8.7539 9.5975 3.2047
8.7539 9.5975 3.4688
8.7539 9.5975 3.5047
8.7539 9.5975 3.7688
8.7539 9.5975 3.8047
8.7539 9.5975 4.0688
8.7539 9.5975 4.1047
8.7539 9.5975 4.3688
8.7539 9.5975 4.4047
8.7539 9.5975 4.6688
8.7539 9.5975 4.7047
8.7539 9.5975 4.9688
8.7539 9.5975 5.0047
9.0539 7.7975 3.1688
9.0539 7.7975 3.2047
9.0539 7.7975 3.4688
9.0539 7.7975 3.5047
9.0539 7.7975 3.7688
9.0539 7.7975 3.8047
9.0539 7.7975 4.0688
9.0539 7.7975 4.1047
9.0539 7.7975 4.3688
9.0539 7.7975 4.4047
9.0539 7.7975 4.6688
9.0539 7.7975 4.7047
9.0539 7.7975 4.9688
9.0539 7.7975 5.0047
9.0539 7.9867 3.1688
9.0539 8.0975 3.1688
9.0539 8.0975 5.0047
9.0539 8.3975 3.1688
9.0539 8.3975 5.0047
9.0539 8.6975 3.1688
9.0539 8.6975 5.0047
9.0539 8.9975 3.1688
9.0539 8.9975 5.0047
9.0539 9.2975 3.1688
9.0539 9.2975 5.0047
9.0539 9.5975 3.1688
9.0539 9.5975 3.2047
9.0539 9.5975 3.4688
9.0539 9.5975 3.5047
9.0539 9.5975 3.7688
9.0539 9.5975 3.8047
9.0539 9.5975 4.0688
9.0539 9.5975 4.1047
9.0539 9.5975 4.3688
9.0539 9.5975 4.4047
9.0539 9.5975 4.6688
9.0539 9.5975 4.7047
9.0539 9.5975 4.9688
9.0539 9.5975 5.0047
9.3539 7.7975 3.1688
9.3539 7.7975 3.2047
9.3539 7.7975 3.4688
9.3539 7.7975 3.5047
9.3539 7.7975 3.7688
9.3539 7.7975 3.8047
9.3539 7.7975 4.0688
9.3539 7.7975 4.1047
9.3539 7.7975 4.3688
9.3539 7.7975 4.4047
9.3539 7.7975 4.6688
9.3539 7.7975 4.7047
9.3539 7.7975 4.9688
9.3539 7.7975 5.0047
9.3539 7.9867 3.1688
9.3539 8.0975 3.1688
9.3539 8.0975 5.0047
9.3539 8.3975 3.1688
9.3539 8.3975 5.0047
9.3539 8.6975 3.1688
9.3539 8.6975 5.0047
9.3539 8.9975 3.1688
9.3539 8.9975 5.0047
9.3539 9.2975 3.1688
9.3539 9.2975 5.0047
9.3539 9.5975 3.1688
9.3539 9.5975 3.2047
9.3539 9.5975 3.4688
9.3539 9.5975 3.5047
9.3539 9.5975 3.7688
9.3539 9.5975 3.8047
9.3539 9.5975 4.0688
9.3539 9.5975 4.1047
9.3539 9.5975 4.3688
9.3539 9.5975 4.4047
9.3539 9.5975 4.6688
9.3539 9.5975 4.7047
9.3539 9.5975 4.9688
9.3539 9.5975 5.0047
9.6539 7.7975 3.1688
9.6539 7.7975 3.2047
9.6539 7.7975 3.4688
9.6539 7.7975 3.5047
9.6539 7.7975 3.7688
9.6539 7.7975 3.8047
9.6539 7.7975 4.0688
9.6539 7.7975 4.1047
9.6539 7.7975 4.3688
9.6539 7.7975 4.4047
9.6539 7.7975 4.6688
9.6539 7.7975 4.7047
9.6539 7.7975 4.9688
9.6539 7.7975 5.0047
9.6539 7.9867 3.1688
9.6539 8.0975 3.1688
9.6539 8.0975 5.0047
9.6539 8.3975 3.1688
9.6539 8.3975 5.0047
9.6539 8.6975 3.1688
9.6539 8.6975 5.0047
9.6539 8.9975 3.1688
9.6539 8.9975 5.0047
9.6539 9.2975 3.1688
9.6539 9.2975 5.0047
9.6539 9.5975 3.1688
9.6539 9.5975 3.2047
9.6539 9.5975 3.4688
9.6539 9.5975 3.5047
9.6539 9.5975 3.7688
9.6539 9.5975 3.8047
9.6539 9.5975 4.0688
9.6539 9.5975 4.1047
9.6539 9.5975 4.3688
9.6539 9.5975 4.4047
9.6539 9.5975 4.6688
9.6539 9.5975 4.7047
9.6539 9.5975 4.9688
9.6539 9.5975 5.0047
9.9539 7.7975 3.1688
9.9539 7.7975 3.2047
9.9539 7.7975 3.4688
9.9539 7.7975 3.5047
9.9539 7.7975 3.7688
9.9539 7.7975 3.8047
9.9539 7.7975 4.0688
9.9539 7.7975 4.1047
9.9539 7.7975 4.3688
9.9539 7.7975 4.4047
9.9539 7.7975 4.6688
9.9539 7.7975 4.7047
9.9539 7.7975 4.9688
9.9539 7.7975 5.0047
9.9539 7.9867 3.1688
9.9539 7.9867 3.4688
9.9539 7.9867 3.7688
9.9539 7.9867 4.0688
9.9539 7.9867 4.3688
9.9539 7.9867 4.6688
9.9539 7.9867 4.9688
9.9539 8.0975 3.1688
9.9539 8.0975 3.2047
9.9539 8.0975 3.4688
9.9539 8.0975 3.5047
9.9539 8.0975 3.7688
9.9539 8.0975 3.8047
9.9539 8.0975 4.0688
9.9539 8.0975 4.1047
9.9539 8.0975 4.3688
9.9539 8.0975 4.4047
9.9539 8.0975 4.6688
9.9539 8.0975 4.7047
9.9539 8.0975 4.9688
9.9539 8.0975 5.0047
9.9539 8.3975 3.1688
9.9539 8.3975 3.2047
9.9539 8.3975 3.4688
9.9539 8.3975 3.5047
9.9539 8.3975 3.7688
9.9539 8.3975 3.8047
9.9539 8.3975 4.0688
9.9539 8.3975 4.1047
9.9539 8.3975 4.3688
9.9539 8.3975 4.4047
9.9539 8.3975 4.6688
9.9539 8.3975 4.7047
9.9539 8.3975 4.9688
9.9539 8.3975 5.0047
9.9539 8.6975 3.1688
9.9539 8.6975 3.2047
9.9539 8.6975 3.4688
9.9539 8.6975 3.5047
9.9539 8.6975 3.7688
9.9539 8.6975 3.8047
9.9539 8.6975 4.0688
9.9539 8.6975 4.1047
9.9539 8.6975 4.3688
9.9539 8.6975 4.4047
9.9539 8.6975 4.6688
9.9539 8.6975 4.7047
9.9539 8.6975 4.9688
9.9539 8.6975 5.0047
9.9539 8.9975 3.1688
9.9539 8.9975 3.2047
9.9539 8.9975 3.4688
9.9539 8.9975 3.5047
9.9539 8.9975 3.7688
9.9539 8.9975 3.8047
9.9539 8.9975 4.0688
9.9539 8.9975 4.1047
9.9539 8.9975 4.3688
9.9539 8.9975 4.4047
9.9539 8.9975 4.6688
9.9539 8.9975 4.7047
9.9539 8.9975 4.9688
9.9539 8.9975 5.0047
9.9539 9.2975 3.1688
9.9539 9.2975 3.2047
9.9539 9.2975 3.4688
9.9539 9.2975 3.5047
9.9539 9.2975 3.7688
9.9539 9.2975 3.8047
9.9539 9.2975 4.0688
9.9539 9.2975 4.1047
9.9539 9.2975 4.3688
9.9539 9.2975 4.4047
9.9539 9.2975 4.6688
9.9539 9.2975 4.7047
9.9539 9.2975 4.9688
9.9539 9.2975 5.0047
9.9539 9.5975 3.1688
9.9539 9.5975 3.2047
9.9539 9.5975 3.4688
9.9539 9.5975 3.5047
9.9539 9.5975 3.7688
9.9539 9.5975 3.8047
9.9539 9.5975 4.0688
9.9539 9.5975 4.1047
9.9539 9.5975 4.3688
9.9539 9.5975 4.4047
9.9539 9.5975 4.6688
9.9539 9.5975 4.7047
9.9539 9.5975 4.9688
9.9539 9.5975 5.0047
