-2.4786 -8.1443 3.2771
-2.4786 -8.1443 3.5771
-2.4786 -8.1443 3.8771
-2.4786 -8.1443 3.9406
-2.4786 -8.1443 4.1771
-2.4786 -8.1443 4.2406
-2.4786 -8.1443 4.4771
-2.4786 -8.1443 4.5406
-2.4786 -8.1443 4.7771
-2.4786 -8.1443 4.8406
-2.4786 -8.1443 5.0771
-2.4786 -8.1443 5.1406
-2.4786 -8.1443 5.4406
-2.4786 -8.1443 5.7406
-2.4786 -7.8443 3.2771
-2.4786 -7.8443 3.5771
-2.4786 -7.8443 3.8771
-2.4786 -7.8443 3.9406
-2.4786 -7.8443 4.1771
-2.4786 -7.8443 4.2406
-2.4786 -7.8443 4.4771
-2.4786 -7.8443 4.5406
-2.4786 -7.8443 4.7771
-2.4786 -7.8443 4.8406
-2.4786 -7.8443 5.0771
-2.4786 -7.8443 5.1406
-2.4786 -7.8443 5.4406
-2.4786 -7.8443 5.7406
-2.4786 -7.5443 3.2771
-2.4786 -7.5443 3.5771
-2.4786 -7.5443 3.8771
-2.4786 -7.5443 3.9406
-2.4786 -7.5443 4.1771
-2.4786 -7.5443 4.2406
-2.4786 -7.5443 4.4771
-2.4786 -7.5443 4.5406
-2.4786 -7.5443 4.7771
-2.4786 -7.5443 4.8406
-2.4786 -7.5443 5.0771
-2.4786 -7.5443 5.1406
-2.4786 -7.5443 5.4406
-2.4786 -7.5443 5.7406
-2.4786 -7.4349 3.9406
-2.4786 -7.4349 4.2406
-2.4786 -7.4349 4.5406
-2.4786 -7.4349 4.8406
-2.4786 -7.4349 5.1406
-2.4786 -7.4349 5.4406
-2.4786 -7.4349 5.7406
-2.4786 -7.2443 3.2771
-2.4786 -7.2443 3.5771
-2.4786 -7.2443 3.8771
-2.4786 -7.2443 3.9406
-2.4786 -7.2443 4.1771
-2.4786 -7.2443 4.2406
-2.4786 -7.2443 4.4771
-2.4786 -7.2443 4.5406
-2.4786 -7.2443 4.7771
-2.4786 -7.2443 4.8406
-2.4786 -7.2443 5.0771
-2.4786 -7.2443 5.1406
-2.4786 -7.2443 5.4406
-2.4786 -7.2443 5.7406
-2.4786 -6.9443 3.2771
-2.4786 -6.9443 3.5771
-2.4786 -6.9443 3.8771
-2.4786 -6.9443 3.9406
-2.4786 -6.9443 4.1771
-2.4786 -6.9443 4.2406
-2.4786 -6.9443 4.4771
-2.4786 -6.9443 4.5406
-2.4786 -6.9443 4.7771
-2.4786 -6.9443 4.8406
-2.4786 -6.9443 5.0771
-2.4786 -6.9443 5.1406
-2.4786 -6.9443 5.4406
-2.4786 -6.9443 5.7406
-2.4786 -6.6443 3.2771
-2.4786 -6.6443 3.5771
-2.4786 -6.6443 3.8771
-2.4786 -6.6443 3.9406
-2.4786 -6.6443 4.1771
-2.4786 -6.6443 4.2406
-2.4786 -6.6443 4.4771
-2.4786 -6.6443 4.5406
-2.4786 -6.6443 4.7771
-2.4786 -6.6443 4.8406
-2.4786 -6.6443 5.0771
-2.4786 -6.6443 5.1406
-2.4786 -6.6443 5.4406
-2.4786 -6.6443 5.7406
-2.4786 -6.3443 3.2771
-2.4786 -6.3443 3.5771
-2.4786 -6.3443 3.8771
-2.4786 -6.3443 3.9406
-2.4786 -6.3443 4.1771
-2.4786 -6.3443 4.2406
-2.4786 -6.3443 4.4771
-2.4786 -6.3443 4.5406
-2.4786 -6.3443 4.7771
-2.4786 -6.3443 4.8406
-2.4786 -6.3443 5.0771
-2.4786 -6.3443 5.1406
-2.4786 -6.3443 5.4406
-2.4786 -6.3443 5.7406
-2.1786 -8.1443 3.2771
-2.1786 -8.1443 3.5771
-2.1786 -8.1443 3.8771
-2.1786 -8.1443 3.9406
-2.1786 -8.1443 4.1771
-2.1786 -8.1443 4.2406
-2.1786 -8.1443 4.4771
-2.1786 -8.1443 4.5406
-2.1786 -8.1443 4.7771
-2.1786 -8.1443 4.8406
-2.1786 -8.1443 5.0771
-2.1786 -8.1443 5.1406
-2.1786 -8.1443 5.4406
-2.1786 -8.1443 5.7406
-2.1786 -7.8443 3.2771
-2.1786 -7.8443 5.7406
-2.1786 -7.5443 3.2771
-2.1786 -7.5443 5.7406
-2.1786 -7.4349 5.7406
-2.1786 -7.2443 3.2771
-2.1786 -7.2443 5.7406
-2.1786 -6.9443 3.2771
-2.1786 -6.9443 5.7406
-2.1786 -6.6443 3.2771
-2.1786 -6.6443 5.7406
-2.1786 -6.3443 3.2771
-2.1786 -6.3443 3.5771
-2.1786 -6.3443 3.8771
-2.1786 -6.3443 3.9406
-2.1786 -6.3443 4.1771
-2.1786 -6.3443 4.2406
-2.1786 -6.3443 4.4771
-2.1786 -6.3443 4.5406
-2.1786 -6.3443 4.7771
-2.1786 -6.3443 4.8406
-2.1786 -6.3443 5.0771
-2.1786 -6.3443 5.1406
-2.1786 -6.3443 5.4406
-2.1786 -6.3443 5.7406
-1.8786 -8.1443 3.2771
-1.8786 -8.1443 3.5771
-1.8786 -8.1443 3.8771
-1.8786 -8.1443 3.9406
-1.8786 -8.1443 4.1771
-1.8786 -8.1443 4.2406
-1.8786 -8.1443 4.4771
-1.8786 -8.1443 4.5406
-1.8786 -8.1443 4.7771
-1.8786 -8.1443 4.8406
-1.8786 -8.1443 5.0771
-1.8786 -8.1443 5.1406
-1.8786 -8.1443 5.4406
-1.8786 -8.1443 5.7406
-1.8786 -7.8443 3.2771
-1.8786 -7.8443 5.7406
-1.8786 -7.5443 3.2771
-1.8786 -7.5443 5.7406
-1.8786 -7.4349 5.7406
-1.8786 -7.2443 3.2771
-1.8786 -7.2443 5.7406
-1.8786 -6.9443 3.2771
-1.8786 -6.9443 5.7406
-1.8786 -6.6443 3.2771
-1.8786 -6.6443 5.7406
-1.8786 -6.3443 3.2771
-1.8786 -6.3443 3.5771
-1.8786 -6.3443 3.8771
-1.8786 -6.3443 3.9406
-1.8786 -6.3443 4.1771
-1.8786 -6.3443 4.2406
-1.8786 -6.3443 4.4771
-1.8786 -6.3443 4.5406
-1.8786 -6.3443 4.7771
-1.8786 -6.3443 4.8406
-1.8786 -6.3443 5.0771
-1.8786 -6.3443 5.1406
-1.8786 -6.3443 5.4406
-1.8786 -6.3443 5.7406
-1.5786 -8.1443 3.2771
-1.5786 -8.1443 3.5771
-1.5786 -8.1443 3.8771
-1.5786 -8.1443 3.9406
-1.5786 -8.1443 4.1771
-1.5786 -8.1443 4.2406
-1.5786 -8.1443 4.4771
-1.5786 -8.1443 4.5406
-1.5786 -8.1443 4.7771
-1.5786 -8.1443 4.8406
-1.5786 -8.1443 5.0771
-1.5786 -8.1443 5.1406
-1.5786 -8.1443 5.4406
-1.5786 -8.1443 5.7406
-1.5786 -7.8443 3.2771
-1.5786 -7.8443 5.7406
-1.5786 -7.5443 3.2771
-1.5786 -7.5443 5.7406
-1.5786 -7.4349 5.7406
-1.5786 -7.2443 3.2771
-1.5786 -7.2443 5.7406
-1.5786 -6.9443 3.2771
-1.5786 -6.9443 5.7406
-1.5786 -6.6443 3.2771
-1.5786 -6.6443 5.7406
-1.5786 -6.3443 3.2771
-1.5786 -6.3443 3.5771
-1.5786 -6.3443 3.8771
-1.5786 -6.3443 3.9406
-1.5786 -6.3443 4.1771
-1.5786 -6.3443 4.2406
-1.5786 -6.3443 4.4771
-1.5786 -6.3443 4.5406
-1.5786 -6.3443 4.7771
-1.5786 -6.3443 4.8406
-1.5786 -6.3443 5.0771
-1.5786 -6.3443 5.1406
-1.5786 -6.3443 5.4406
-1.5786 -6.3443 5.7406
-1.2786 -8.1443 3.2771
-1.2786 -8.1443 3.5771
-1.2786 -8.1443 3.8771
-1.2786 -8.1443 3.9406
-1.2786 -8.1443 4.1771
-1.2786 -8.1443 4.2406
-1.2786 -8.1443 4.4771
-1.2786 -8.1443 4.5406
-1.2786 -8.1443 4.7771
-1.2786 -8.1443 4.8406
-1.2786 -8.1443 5.0771
-1.2786 -8.1443 5.1406
-1.2786 -8.1443 5.4406
-1.2786 -8.1443 5.7406
-1.2786 -7.8443 3.2771
-1.2786 -7.8443 5.7406
-1.2786 -7.5443 3.2771
-1.2786 -7.5443 5.7406
-1.2786 -7.4349 5.7406
-1.2786 -7.2443 3.2771
-1.2786 -7.2443 5.7406
-1.2786 -6.9443 3.2771
-1.2786 -6.9443 5.7406
-1.2786 -6.6443 3.2771
-1.2786 -6.6443 5.7406
-1.2786 -6.3443 3.2771
-1.2786 -6.3443 3.5771
-1.2786 -6.3443 3.8771
-1.2786 -6.3443 3.9406
-1.2786 -6.3443 4.1771
-1.2786 -6.3443 4.2406
-1.2786 -6.3443 4.4771
-1.2786 -6.3443 4.5406
-1.2786 -6.3443 4.7771
-1.2786 -6.3443 4.8406
-1.2786 -6.3443 5.0771
-1.2786 -6.3443 5.1406
-1.2786 -6.3443 5.4406
-1.2786 -6.3443 5.7406
-0.97856 -8.1443 3.2771
-0.97856 -8.1443 3.5771
-0.97856 -8.1443 3.8771
-0.97856 -8.1443 3.9406
-0.97856 -8.1443 4.1771
-0.97856 -8.1443 4.2406
-0.97856 -8.1443 4.4771
-0.97856 -8.1443 4.5406
-0.97856 -8.1443 4.7771
-0.97856 -8.1443 4.8406
-0.97856 -8.1443 5.0771
-0.97856 -8.1443 5.1406
-0.97856 -8.1443 5.4406
-0.97856 -8.1443 5.7406
-0.97856 -7.8443 3.2771
-0.97856 -7.8443 5.7406
-0.97856 -7.5443 3.2771
-0.97856 -7.5443 5.7406
-0.97856 -7.4349 5.7406
-0.97856 -7.2443 3.2771
-0.97856 -7.2443 5.7406
-0.97856 -6.9443 3.2771
-0.97856 -6.9443 5.7406
-0.97856 -6.6443 3.2771
-0.97856 -6.6443 5.7406
-0.97856 -6.3443 3.2771
-0.97856 -6.3443 3.5771
-0.97856 -6.3443 3.8771
-0.97856 -6.3443 3.9406
-0.97856 -6.3443 4.1771
-0.97856 -6.3443 4.2406
-0.97856 -6.3443 4.4771
-0.97856 -6.3443 4.5406
-0.97856 -6.3443 4.7771
-0.97856 -6.3443 4.8406
-0.97856 -6.3443 5.0771
-0.97856 -6.3443 5.1406
-0.97856 -6.3443 5.4406
-0.97856 -6.3443 5.7406
-0.67856 -8.1443 3.2771
-0.67856 -8.1443 3.5771
-0.67856 -8.1443 3.8771
-0.67856 -8.1443 3.9406
-0.67856 -8.1443 4.1771
-0.67856 -8.1443 4.2406
-0.67856 -8.1443 4.4771
-0.67856 -8.1443 4.5406
-0.67856 -8.1443 4.7771
-0.67856 -8.1443 4.8406
-0.67856 -8.1443 5.0771
-0.67856 -8.1443 5.1406
-0.67856 -8.1443 5.4406
-0.67856 -8.1443 5.7406
-0.67856 -7.8443 3.2771
-0.67856 -7.8443 3.5771
-0.67856 -7.8443 3.8771
-0.67856 -7.8443 3.9406
-0.67856 -7.8443 4.1771
-0.67856 -7.8443 4.2406
-0.67856 -7.8443 4.4771
-0.67856 -7.8443 4.5406
-0.67856 -7.8443 4.7771
-0.67856 -7.8443 4.8406
-0.67856 -7.8443 5.0771
-0.67856 -7.8443 5.1406
-0.67856 -7.8443 5.4406
-0.67856 -7.8443 5.7406
-0.67856 -7.5443 3.2771
-0.67856 -7.5443 3.5771
-0.67856 -7.5443 3.8771
-0.67856 -7.5443 3.9406
-0.67856 -7.5443 4.1771
-0.67856 -7.5443 4.2406
-0.67856 -7.5443 4.4771
-0.67856 -7.5443 4.5406
-0.67856 -7.5443 4.7771
-0.67856 -7.5443 4.8406
-0.67856 -7.5443 5.0771
-0.67856 -7.5443 5.1406
-0.67856 -7.5443 5.4406
-0.67856 -7.5443 5.7406
-0.67856 -7.4349 3.9406
-0.67856 -7.4349 4.2406
-0.67856 -7.4349 4.5406
-0.67856 -7.4349 4.8406
-0.67856 -7.4349 5.1406
-0.67856 -7.4349 5.4406
-0.67856 -7.4349 5.7406
-0.67856 -7.2443 3.2771
-0.67856 -7.2443 3.5771
-0.67856 -7.2443 3.8771
-0.67856 -7.2443 3.9406
-0.67856 -7.2443 4.1771
-0.67856 -7.2443 4.2406
-0.67856 -7.2443 4.4771
-0.67856 -7.2443 4.5406
-0.67856 -7.2443 4.7771
-0.67856 -7.2443 4.8406
-0.67856 -7.2443 5.0771
-0.67856 -7.2443 5.1406
-0.67856 -7.2443 5.4406
-0.67856 -7.2443 5.7406
-0.67856 -6.9443 3.2771
-0.67856 -6.9443 3.5771
-0.67856 -6.9443 3.8771
-0.67856 -6.9443 3.9406
-0.67856 -6.9443 4.1771
-0.67856 -6.9443 4.2406
-0.67856 -6.9443 4.4771
-0.67856 -6.9443 4.5406
-0.67856 -6.9443 4.7771
-0.67856 -6.9443 4.8406
-0.67856 -6.9443 5.0771
-0.67856 -6.9443 5.1406
-0.67856 -6.9443 5.4406
-0.67856 -6.9443 5.7406
-0.67856 -6.6443 3.2771
-0.67856 -6.6443 3.5771
-0.67856 -6.6443 3.8771
-0.67856 -6.6443 3.9406
-0.67856 -6.6443 4.1771
-0.67856 -6.6443 4.2406
-0.67856 -6.6443 4.4771
-0.67856 -6.6443 4.5406
-0.67856 -6.6443 4.7771
-0.67856 -6.6443 4.8406
-0.67856 -6.6443 5.0771
-0.67856 -6.6443 5.1406
-0.67856 -6.6443 5.4406
-0.67856 -6.6443 5.7406
-0.67856 -6.3443 3.2771
-0.67856 -6.3443 3.5771
-0.67856 -6.3443 3.8771
-0.67856 -6.3443 3.9406
-0.67856 -6.3443 4.1771
-0.67856 -6.3443 4.2406
-0.67856 -6.3443 4.4771
-0.67856 -6.3443 4.5406
-0.67856 -6.3443 4.7771
-0.67856 -6.3443 4.8406
-0.67856 -6.3443 5.0771
-0.67856 -6.3443 5.1406
-0.67856 -6.3443 5.4406
-0.67856 -6.3443 5.7406
