-0.2185 -5.93 2.9815
-0.2185 -5.93 3.1773
-0.2185 -5.93 3.2815
-0.2185 -5.93 3.4773
-0.2185 -5.93 3.5815
-0.2185 -5.93 3.7773
-0.2185 -5.93 3.8815
-0.2185 -5.93 4.0773
-0.2185 -5.93 4.1815
-0.2185 -5.93 4.3773
-0.2185 -5.93 4.4815
-0.2185 -5.93 4.6773
-0.2185 -5.93 4.7815
-0.2185 -5.93 4.9773
-0.2185 -5.63 2.9815
-0.2185 -5.63 3.1773
-0.2185 -5.63 3.2815
-0.2185 -5.63 3.4773
-0.2185 -5.63 3.5815
-0.2185 -5.63 3.7773
-0.2185 -5.63 3.8815
-0.2185 -5.63 4.0773
-0.2185 -5.63 4.1815
-0.2185 -5.63 4.3773
-0.2185 -5.63 4.4815
-0.2185 -5.63 4.6773
-0.2185 -5.63 4.7815
-0.2185 -5.63 4.9773
-0.2185 -5.534 3.1773
-0.2185 -5.534 3.4773
-0.2185 -5.534 3.7773
-0.2185 -5.534 4.0773
-0.2185 -5.534 4.3773
-0.2185 -5.534 4.6773
-0.2185 -5.534 4.9773
-0.2185 -5.33 2.9815
-0.2185 -5.33 3.1773
-0.2185 -5.33 3.2815
-0.2185 -5.33 3.4773
-0.2185 -5.33 3.5815
-0.2185 -5.33 3.7773
-0.2185 -5.33 3.8815
-0.2185 -5.33 4.0773
-0.2185 -5.33 4.1815
-0.2185 -5.33 4.3773
-0.2185 -5.33 4.4815
-0.2185 -5.33 4.6773
-0.2185 -5.33 4.7815
-0.2185 -5.33 4.9773
-0.2185 -5.03 2.9815
-0.2185 -5.03 3.1773
-0.2185 -5.03 3.2815
-0.2185 -5.03 3.4773
-0.2185 -5.03 3.5815
-0.2185 -5.03 3.7773
-0.2185 -5.03 3.8815
-0.2185 -5.03 4.0773
-0.2185 -5.03 4.1815
-0.2185 -5.03 4.3773
-0.2185 -5.03 4.4815
-0.2185 -5.03 4.6773
-0.2185 -5.03 4.7815
-0.2185 -5.03 4.9773
-0.2185 -4.73 2.9815
-0.2185 -4.73 3.1773
-0.2185 -4.73 3.2815
-0.2185 -4.73 3.4773
-0.2185 -4.73 3.5815
-0.2185 -4.73 3.7773
-0.2185 -4.73 3.8815
-0.2185 -4.73 4.0773
-0.2185 -4.73 4.1815
-0.2185 -4.73 4.3773
-0.2185 -4.73 4.4815
-0.2185 -4.73 4.6773
-0.2185 -4.73 4.7815
-0.2185 -4.73 4.9773
-0.2185 -4.43 2.9815
-0.2185 -4.43 3.1773
-0.2185 -4.43 3.2815
-0.2185 -4.43 3.4773
-0.2185 -4.43 3.5815
-0.2185 -4.43 3.7773
-0.2185 -4.43 3.8815
-0.2185 -4.43 4.0773
-0.2185 -4.43 4.1815
-0.2185 -4.43 4.3773
-0.2185 -4.43 4.4815
-0.2185 -4.43 4.6773
-0.2185 -4.43 4.7815
-0.2185 -4.43 4.9773
-0.2185 -4.13 2.9815
-0.2185 -4.13 3.1773
-0.2185 -4.13 3.2815
-0.2185 -4.13 3.4773
-0.2185 -4.13 3.5815
-0.2185 -4.13 3.7773
-0.2185 -4.13 3.8815
-0.2185 -4.13 4.0773
-0.2185 -4.13 4.1815
-0.2185 -4.13 4.3773
-0.2185 -4.13 4.4815
-0.2185 -4.13 4.6773
-0.2185 -4.13 4.7815
-0.2185 -4.13 4.9773
0.081496 -5.93 2.9815
0.081496 -5.93 3.1773
0.081496 -5.93 3.2815
0.081496 -5.93 3.4773
0.081496 -5.93 3.5815
0.081496 -5.93 3.7773
0.081496 -5.93 3.8815
0.081496 -5.93 4.0773
0.081496 -5.93 4.1815
0.081496 -5.93 4.3773
0.081496 -5.93 4.4815
0.081496 -5.93 4.6773
0.081496 -5.93 4.7815
0.081496 -5.93 4.9773
0.081496 -5.63 2.9815
0.081496 -5.63 4.9773
0.081496 -5.534 4.9773
0.081496 -5.33 2.9815
0.081496 -5.33 4.9773
0.081496 -5.03 2.9815
0.081496 -5.03 4.9773
0.081496 -4.73 2.9815
0.081496 -4.73 4.9773
0.081496 -4.43 2.9815
0.081496 -4.43 4.9773
0.081496 -4.13 2.9815
0.081496 -4.13 3.1773
0.081496 -4.13 3.2815
0.081496 -4.13 3.4773
0.081496 -4.13 3.5815
0.081496 -4.13 3.7773
0.081496 -4.13 3.8815
0.081496 -4.13 4.0773
0.081496 -4.13 4.1815
0.081496 -4.13 4.3773
0.081496 -4.13 4.4815
0.081496 -4.13 4.6773
0.081496 -4.13 4.7815
0.081496 -4.13 4.9773
0.3815 -5.93 2.9815
0.3815 -5.93 3.1773
0.3815 -5.93 3.2815
0.3815 -5.93 3.4773
0.3815 -5.93 3.5815
0.3815 -5.93 3.7773
0.3815 -5.93 3.8815
0.3815 -5.93 4.0773
0.3815 -5.93 4.1815
0.3815 -5.93 4.3773
0.3815 -5.93 4.4815
0.3815 -5.93 4.6773
0.3815 -5.93 4.7815
0.3815 -5.93 4.9773
0.3815 -5.63 2.9815
0.3815 -5.63 4.9773
0.3815 -5.534 4.9773
0.3815 -5.33 2.9815
0.3815 -5.33 4.9773
0.3815 -5.03 2.9815
0.3815 -5.03 4.9773
0.3815 -4.73 2.9815
0.3815 -4.73 4.9773
0.3815 -4.43 2.9815
0.3815 -4.43 4.9773
0.3815 -4.13 2.9815
0.3815 -4.13 3.1773
0.3815 -4.13 3.2815
0.3815 -4.13 3.4773
0.3815 -4.13 3.5815
0.3815 -4.13 3.7773
0.3815 -4.13 3.8815
0.3815 -4.13 4.0773
0.3815 -4.13 4.1815
0.3815 -4.13 4.3773
0.3815 -4.13 4.4815
0.3815 -4.13 4.6773
0.3815 -4.13 4.7815
0.3815 -4.13 4.9773
0.6815 -5.93 2.9815
0.6815 -5.93 3.1773
0.6815 -5.93 3.2815
0.6815 -5.93 3.4773
0.6815 -5.93 3.5815
0.6815 -5.93 3.7773
0.6815 -5.93 3.8815
0.6815 -5.93 4.0773
0.6815 -5.93 4.1815
0.6815 -5.93 4.3773
0.6815 -5.93 4.4815
0.6815 -5.93 4.6773
0.6815 -5.93 4.7815
0.6815 -5.93 4.9773
0.6815 -5.63 2.9815
0.6815 -5.63 4.9773
0.6815 -5.534 4.9773
0.6815 -5.33 2.9815
0.6815 -5.33 4.9773
0.6815 -5.03 2.9815
0.6815 -5.03 4.9773
0.6815 -4.73 2.9815
0.6815 -4.73 4.9773
0.6815 -4.43 2.9815
0.6815 -4.43 4.9773
0.6815 -4.13 2.9815
0.6815 -4.13 3.1773
0.6815 -4.13 3.2815
0.6815 -4.13 3.4773
0.6815 -4.13 3.5815
0.6815 -4.13 3.7773
0.6815 -4.13 3.8815
0.6815 -4.13 4.0773
0.6815 -4.13 4.1815
0.6815 -4.13 4.3773
0.6815 -4.13 4.4815
0.6815 -4.13 4.6773
0.6815 -4.13 4.7815
0.6815 -4.13 4.9773
0.9815 -5.93 2.9815
0.9815 -5.93 3.1773
0.9815 -5.93 3.2815
0.9815 -5.93 3.4773
0.9815 -5.93 3.5815
0.9815 -5.93 3.7773
0.9815 -5.93 3.8815
0.9815 -5.93 4.0773
0.9815 -5.93 4.1815
0.9815 -5.93 4.3773
0.9815 -5.93 4.4815
0.9815 -5.93 4.6773
0.9815 -5.93 4.7815
0.9815 -5.93 4.9773
0.9815 -5.63 2.9815
0.9815 -5.63 4.9773
0.9815 -5.534 4.9773
0.9815 -5.33 2.9815
0.9815 -5.33 4.9773
0.9815 -5.03 2.9815
0.9815 -5.03 4.9773
0.9815 -4.73 2.9815
0.9815 -4.73 4.9773
0.9815 -4.43 2.9815
0.9815 -4.43 4.9773
0.9815 -4.13 2.9815
0.9815 -4.13 3.1773
0.9815 -4.13 3.2815
0.9815 -4.13 3.4773
0.9815 -4.13 3.5815
0.9815 -4.13 3.7773
0.9815 -4.13 3.8815
0.9815 -4.13 4.0773
0.9815 -4.13 4.1815
0.9815 -4.13 4.3773
0.9815 -4.13 4.4815
0.9815 -4.13 4.6773
0.9815 -4.13 4.7815
0.9815 -4.13 4.9773
1.2815 -5.93 2.9815
1.2815 -5.93 3.1773
1.2815 -5.93 3.2815
1.2815 -5.93 3.4773
1.2815 -5.93 3.5815
1.2815 -5.93 3.7773
1.2815 -5.93 3.8815
1.2815 -5.93 4.0773
1.2815 -5.93 4.1815
1.2815 -5.93 4.3773
1.2815 -5.93 4.4815
1.2815 -5.93 4.6773
1.2815 -5.93 4.7815
1.2815 -5.93 4.9773
1.2815 -5.63 2.9815
1.2815 -5.63 4.9773
1.2815 -5.534 4.9773
1.2815 -5.33 2.9815
1.2815 -5.33 4.9773
1.2815 -5.03 2.9815
1.2815 -5.03 4.9773
1.2815 -4.73 2.9815
1.2815 -4.73 4.9773
1.2815 -4.43 2.9815
1.2815 -4.43 4.9773
1.2815 -4.13 2.9815
1.2815 -4.13 3.1773
1.2815 -4.13 3.2815
1.2815 -4.13 3.4773
1.2815 -4.13 3.5815
1.2815 -4.13 3.7773
1.2815 -4.13 3.8815
1.2815 -4.13 4.0773
1.2815 -4.13 4.1815
1.2815 -4.13 4.3773
1.2815 -4.13 4.4815
1.2815 -4.13 4.6773
1.2815 -4.13 4.7815
1.2815 -4.13 4.9773
1.5815 -5.93 2.9815
1.5815 -5.93 3.1773
1.5815 -5.93 3.2815
1.5815 -5.93 3.4773
1.5815 -5.93 3.5815
1.5815 -5.93 3.7773
1.5815 -5.93 3.8815
1.5815 -5.93 4.0773
1.5815 -5.93 4.1815
1.5815 -5.93 4.3773
1.5815 -5.93 4.4815
1.5815 -5.93 4.6773
1.5815 -5.93 4.7815
1.5815 -5.93 4.9773
1.5815 -5.63 2.9815
1.5815 -5.63 3.1773
1.5815 -5.63 3.2815
1.5815 -5.63 3.4773
1.5815 -5.63 3.5815
1.5815 -5.63 3.7773
1.5815 -5.63 3.8815
1.5815 -5.63 4.0773
1.5815 -5.63 4.1815
1.5815 -5.63 4.3773
1.5815 -5.63 4.4815
1.5815 -5.63 4.6773
1.5815 -5.63 4.7815
1.5815 -5.63 4.9773
1.5815 -5.534 3.1773
1.5815 -5.534 3.4773
1.5815 -5.534 3.7773
1.5815 -5.534 4.0773
1.5815 -5.534 4.3773
1.5815 -5.534 4.6773
1.5815 -5.534 4.9773
1.5815 -5.33 2.9815
1.5815 -5.33 3.1773
1.5815 -5.33 3.2815
1.5815 -5.33 3.4773
1.5815 -5.33 3.5815
1.5815 -5.33 3.7773
1.5815 -5.33 3.8815
1.5815 -5.33 4.0773
1.5815 -5.33 4.1815
1.5815 -5.33 4.3773
1.5815 -5.33 4.4815
1.5815 -5.33 4.6773
1.5815 -5.33 4.7815
1.5815 -5.33 4.9773
1.5815 -5.03 2.9815
1.5815 -5.03 3.1773
1.5815 -5.03 3.2815
1.5815 -5.03 3.4773
1.5815 -5.03 3.5815
1.5815 -5.03 3.7773
1.5815 -5.03 3.8815
1.5815 -5.03 4.0773
1.5815 -5.03 4.1815
1.5815 -5.03 4.3773
1.5815 -5.03 4.4815
1.5815 -5.03 4.6773
1.5815 -5.03 4.7815
1.5815 -5.03 4.9773
1.5815 -4.73 2.9815
1.5815 -4.73 3.1773
1.5815 -4.73 3.2815
1.5815 -4.73 3.4773
1.5815 -4.73 3.5815
1.5815 -4.73 3.7773
1.5815 -4.73 3.8815
1.5815 -4.73 4.0773
1.5815 -4.73 4.1815
1.5815 -4.73 4.3773
1.5815 -4.73 4.4815
1.5815 -4.73 4.6773
1.5815 -4.73 4.7815
1.5815 -4.73 4.9773
1.5815 -4.43 2.9815
1.5815 -4.43 3.1773
1.5815 -4.43 3.2815
1.5815 -4.43 3.4773
1.5815 -4.43 3.5815
1.5815 -4.43 3.7773
1.5815 -4.43 3.8815
1.5815 -4.43 4.0773
1.5815 -4.43 4.1815
1.5815 -4.43 4.3773
1.5815 -4.43 4.4815
1.5815 -4.43 4.6773
1.5815 -4.43 4.7815
1.5815 -4.43 4.9773
1.5815 -4.13 2.9815
1.5815 -4.13 3.1773
1.5815 -4.13 3.2815
1.5815 -4.13 3.4773
1.5815 -4.13 3.5815
1.5815 -4.13 3.7773
1.5815 -4.13 3.8815
1.5815 -4.13 4.0773
1.5815 -4.13 4.1815
1.5815 -4.13 4.3773
1.5815 -4.13 4.4815
1.5815 -4.13 4.6773
1.5815 -4.13 4.7815
1.5815 -4.13 4.9773
