8.4105 2.1777 3.5983
8.4228 2.1777 3.4419
8.4228 2.1777 3.7548
8.4594 1.8687 3.5983
8.4594 2.1777 3.2893
8.4594 2.1777 3.9073
8.4594 2.4867 3.5983
8.4711 1.8725 3.4419
8.4711 1.8725 3.7548
8.4711 2.4829 3.4419
8.4711 2.4829 3.7548
8.5059 1.8838 3.2893
8.5059 1.8838 3.9073
8.5059 2.4716 3.2893
8.5059 2.4716 3.9073
8.5194 2.1777 3.1443
8.5194 2.1777 4.0523
8.5631 1.9024 3.1443
8.5631 1.9024 4.0523
8.5631 2.453 3.1443
8.5631 2.453 4.0523
8.6014 2.1777 3.0105
8.6014 2.1777 4.1861
8.6014 1.5899 3.5983
8.6014 2.7655 3.5983
8.6114 1.5972 3.4419
8.6114 1.5972 3.7548
8.6114 2.7583 3.4419
8.6114 2.7583 3.7548
8.641 1.9277 3.0105
8.641 1.9277 4.1861
8.641 2.4277 3.0105
8.641 2.4277 4.1861
8.641 1.6187 3.2893
8.641 1.6187 3.9073
8.641 2.7367 3.2893
8.641 2.7367 3.9073
8.6896 1.654 3.1443
8.6896 1.654 4.0523
8.6896 2.7014 3.1443
8.6896 2.7014 4.0523
8.7033 2.1777 2.8912
8.7033 2.1777 4.3054
8.738 1.9592 2.8912
8.738 1.9592 4.3054
8.738 2.3962 2.8912
8.738 2.3962 4.3054
8.7559 1.7022 3.0105
8.7559 1.7022 4.1861
8.7559 2.6532 3.0105
8.7559 2.6532 4.1861
8.8227 2.1777 2.7893
8.8227 2.1777 4.4073
8.8227 1.3687 3.5983
8.8227 2.9867 3.5983
8.8299 1.3787 3.4419
8.8299 1.3787 3.7548
8.8299 2.9768 3.4419
8.8299 2.9768 3.7548
8.8384 1.7621 2.8912
8.8384 1.7621 4.3054
8.8384 2.5933 2.8912
8.8384 2.5933 4.3054
8.8514 1.9961 2.7893
8.8514 1.9961 4.4073
8.8514 2.3593 2.7893
8.8514 2.3593 4.4073
8.8514 1.4083 3.2893
8.8514 1.4083 3.9073
8.8514 2.9471 3.2893
8.8514 2.9471 3.9073
8.8867 1.4569 3.1443
8.8867 1.4569 4.0523
8.8867 2.8986 3.1443
8.8867 2.8986 4.0523
8.9349 1.8322 2.7893
8.9349 1.8322 4.4073
8.9349 2.5232 2.7893
8.9349 2.5232 4.4073
8.9349 1.5232 3.0105
8.9349 1.5232 4.1861
8.9349 2.8322 3.0105
8.9349 2.8322 4.1861
8.9565 2.1777 2.7073
8.9565 2.1777 4.4893
8.9787 2.0374 2.7073
8.9787 2.0374 4.4893
8.9787 2.318 2.7073
8.9787 2.318 4.4893
8.9948 1.6056 2.8912
8.9948 1.6056 4.3054
8.9948 2.7498 2.8912
8.9948 2.7498 4.3054
9.0432 1.9109 2.7073
9.0432 1.9109 4.4893
9.0432 2.4446 2.7073
9.0432 2.4446 4.4893
9.065 1.7022 2.7893
9.065 1.7022 4.4073
9.065 2.6532 2.7893
9.065 2.6532 4.4073
9.1014 2.1777 2.6473
9.1014 2.1777 4.5494
9.1014 1.2267 3.5983
9.1014 3.1288 3.5983
9.1052 1.2384 3.4419
9.1052 1.2384 3.7548
9.1052 3.1171 3.4419
9.1052 3.1171 3.7548
9.1166 2.0822 2.6473
9.1166 2.0822 4.5494
9.1166 2.2732 2.6473
9.1166 2.2732 4.5494
9.1166 1.2732 3.2893
9.1166 1.2732 3.9073
9.1166 3.0822 3.2893
9.1166 3.0822 3.9073
9.1351 1.3303 3.1443
9.1351 1.3303 4.0523
9.1351 3.0251 3.1443
9.1351 3.0251 4.0523
9.1436 1.8104 2.7073
9.1436 1.8104 4.4893
9.1436 2.545 2.7073
9.1436 2.545 4.4893
9.1605 1.9961 2.6473
9.1605 1.9961 4.5494
9.1605 2.3593 2.6473
9.1605 2.3593 4.5494
9.1605 1.4083 3.0105
9.1605 1.4083 4.1861
9.1605 2.9471 3.0105
9.1605 2.9471 4.1861
9.1919 1.5052 2.8912
9.1919 1.5052 4.3054
9.1919 2.8502 2.8912
9.1919 2.8502 4.3054
9.2288 1.9277 2.6473
9.2288 1.9277 4.5494
9.2288 2.4277 2.6473
9.2288 2.4277 4.5494
9.2288 1.6187 2.7893
9.2288 1.6187 4.4073
9.2288 2.7367 2.7893
9.2288 2.7367 4.4073
9.254 2.1777 2.6106
9.254 2.1777 4.586
9.2617 2.1294 2.6106
9.2617 2.1294 4.586
9.2617 2.2261 2.6106
9.2617 2.2261 4.586
9.2702 1.7459 2.7073
9.2702 1.7459 4.4893
9.2702 2.6095 2.7073
9.2702 2.6095 4.4893
9.2839 2.0858 2.6106
9.2839 2.0858 4.586
9.2839 2.2697 2.6106
9.2839 2.2697 4.586
9.315 1.8838 2.6473
9.315 1.8838 4.5494
9.315 2.4716 2.6473
9.315 2.4716 4.5494
9.3185 2.0512 2.6106
9.3185 2.0512 4.586
9.3185 2.3043 2.6106
9.3185 2.3043 4.586
9.3621 2.0289 2.6106
9.3621 2.0289 4.586
9.3621 2.3265 2.6106
9.3621 2.3265 4.586
9.4105 2.1777 2.5983
9.4105 2.1777 4.5983
9.4105 2.0213 2.6106
9.4105 2.0213 4.586
9.4105 2.3341 2.6106
9.4105 2.3341 4.586
9.4105 1.8687 2.6473
9.4105 1.8687 4.5494
9.4105 2.4867 2.6473
9.4105 2.4867 4.5494
9.4105 1.7237 2.7073
9.4105 1.7237 4.4893
9.4105 2.6317 2.7073
9.4105 2.6317 4.4893
9.4105 1.5899 2.7893
9.4105 1.5899 4.4073
9.4105 2.7655 2.7893
9.4105 2.7655 4.4073
9.4105 1.4706 2.8912
9.4105 1.4706 4.3054
9.4105 2.8848 2.8912
9.4105 2.8848 4.3054
9.4105 1.3687 3.0105
9.4105 1.3687 4.1861
9.4105 2.9867 3.0105
9.4105 2.9867 4.1861
9.4105 1.2867 3.1443
9.4105 1.2867 4.0523
9.4105 3.0687 3.1443
9.4105 3.0687 4.0523
9.4105 1.2267 3.2893
9.4105 1.2267 3.9073
9.4105 3.1288 3.2893
9.4105 3.1288 3.9073
9.4105 1.19 3.4419
9.4105 1.19 3.7548
9.4105 3.1654 3.4419
9.4105 3.1654 3.7548
9.4105 1.1777 3.5983
9.4105 3.1777 3.5983
9.4588 2.0289 2.6106
9.4588 2.0289 4.586
9.4588 2.3265 2.6106
9.4588 2.3265 4.586
9.5024 2.0512 2.6106
9.5024 2.0512 4.586
9.5024 2.3043 2.6106
9.5024 2.3043 4.586
9.5059 1.8838 2.6473
9.5059 1.8838 4.5494
9.5059 2.4716 2.6473
9.5059 2.4716 4.5494
9.537 2.0858 2.6106
9.537 2.0858 4.586
9.537 2.2697 2.6106
9.537 2.2697 4.586
9.5507 1.7459 2.7073
9.5507 1.7459 4.4893
9.5507 2.6095 2.7073
9.5507 2.6095 4.4893
9.5592 2.1294 2.6106
9.5592 2.1294 4.586
9.5592 2.2261 2.6106
9.5592 2.2261 4.586
9.5669 2.1777 2.6106
9.5669 2.1777 4.586
9.5921 1.6187 2.7893
9.5921 1.6187 4.4073
9.5921 1.9277 2.6473
9.5921 1.9277 4.5494
9.5921 2.4277 2.6473
9.5921 2.4277 4.5494
9.5921 2.7367 2.7893
9.5921 2.7367 4.4073
9.629 1.5052 2.8912
9.629 1.5052 4.3054
9.629 2.8502 2.8912
9.629 2.8502 4.3054
9.6605 1.4083 3.0105
9.6605 1.4083 4.1861
9.6605 1.9961 2.6473
9.6605 1.9961 4.5494
9.6605 2.3593 2.6473
9.6605 2.3593 4.5494
9.6605 2.9471 3.0105
9.6605 2.9471 4.1861
9.6773 1.8104 2.7073
9.6773 1.8104 4.4893
9.6773 2.545 2.7073
9.6773 2.545 4.4893
9.6858 1.3303 3.1443
9.6858 1.3303 4.0523
9.6858 3.0251 3.1443
9.6858 3.0251 4.0523
9.7043 1.2732 3.2893
9.7043 1.2732 3.9073
9.7043 2.0822 2.6473
9.7043 2.0822 4.5494
9.7043 2.2732 2.6473
9.7043 2.2732 4.5494
9.7043 3.0822 3.2893
9.7043 3.0822 3.9073
9.7157 1.2384 3.4419
9.7157 1.2384 3.7548
9.7157 3.1171 3.4419
9.7157 3.1171 3.7548
9.7195 1.2267 3.5983
9.7195 2.1777 2.6473
9.7195 2.1777 4.5494
9.7195 3.1288 3.5983
9.7559 1.7022 2.7893
9.7559 1.7022 4.4073
9.7559 2.6532 2.7893
9.7559 2.6532 4.4073
9.7777 1.9109 2.7073
9.7777 1.9109 4.4893
9.7777 2.4446 2.7073
9.7777 2.4446 4.4893
9.8261 1.6056 2.8912
9.8261 1.6056 4.3054
9.8261 2.7498 2.8912
9.8261 2.7498 4.3054
9.8422 2.0374 2.7073
9.8422 2.0374 4.4893
9.8422 2.318 2.7073
9.8422 2.318 4.4893
9.8644 2.1777 2.7073
9.8644 2.1777 4.4893
9.886 1.5232 3.0105
9.886 1.5232 4.1861
9.886 1.8322 2.7893
9.886 1.8322 4.4073
9.886 2.5232 2.7893
9.886 2.5232 4.4073
9.886 2.8322 3.0105
9.886 2.8322 4.1861
9.9342 1.4569 3.1443
9.9342 1.4569 4.0523
9.9342 2.8986 3.1443
9.9342 2.8986 4.0523
9.9695 1.4083 3.2893
9.9695 1.4083 3.9073
9.9695 1.9961 2.7893
9.9695 1.9961 4.4073
9.9695 2.3593 2.7893
9.9695 2.3593 4.4073
9.9695 2.9471 3.2893
9.9695 2.9471 3.9073
9.9825 1.7621 2.8912
9.9825 1.7621 4.3054
9.9825 2.5933 2.8912
9.9825 2.5933 4.3054
9.991 1.3787 3.4419
9.991 1.3787 3.7548
9.991 2.9768 3.4419
9.991 2.9768 3.7548
9.9982 1.3687 3.5983
9.9982 2.1777 2.7893
9.9982 2.1777 4.4073
9.9982 2.9867 3.5983
10.065 1.7022 3.0105
10.065 1.7022 4.1861
10.065 2.6532 3.0105
10.065 2.6532 4.1861
10.083 1.9592 2.8912
10.083 1.9592 4.3054
10.083 2.3962 2.8912
10.083 2.3962 4.3054
10.118 2.1777 2.8912
10.118 2.1777 4.3054
10.131 1.654 3.1443
10.131 1.654 4.0523
10.131 2.7014 3.1443
10.131 2.7014 4.0523
10.18 1.6187 3.2893
10.18 1.6187 3.9073
10.18 1.9277 3.0105
10.18 1.9277 4.1861
10.18 2.4277 3.0105
10.18 2.4277 4.1861
10.18 2.7367 3.2893
10.18 2.7367 3.9073
10.21 1.5972 3.4419
10.21 1.5972 3.7548
10.21 2.7583 3.4419
10.21 2.7583 3.7548
10.219 1.5899 3.5983
10.219 2.1777 3.0105
10.219 2.1777 4.1861
10.219 2.7655 3.5983
10.258 1.9024 3.1443
10.258 1.9024 4.0523
10.258 2.453 3.1443
10.258 2.453 4.0523
10.301 2.1777 3.1443
10.301 2.1777 4.0523
10.315 1.8838 3.2893
10.315 1.8838 3.9073
10.315 2.4716 3.2893
10.315 2.4716 3.9073
10.35 1.8725 3.4419
10.35 1.8725 3.7548
10.35 2.4829 3.4419
10.35 2.4829 3.7548
10.362 1.8687 3.5983
10.362 2.1777 3.2893
10.362 2.1777 3.9073
10.362 2.4867 3.5983
10.398 2.1777 3.4419
10.398 2.1777 3.7548
10.41 2.1777 3.5983
