-1.2205 6.1213 1.8892
-1.2082 6.1213 1.7328
-1.2082 6.1213 2.0457
-1.1716 5.8123 1.8892
-1.1716 6.1213 1.5802
-1.1716 6.1213 2.1983
-1.1716 6.4303 1.8892
-1.1599 5.8161 1.7328
-1.1599 5.8161 2.0457
-1.1599 6.4265 1.7328
-1.1599 6.4265 2.0457
-1.125 5.8274 1.5802
-1.125 5.8274 2.1983
-1.125 6.4152 1.5802
-1.125 6.4152 2.1983
-1.1115 6.1213 1.4352
-1.1115 6.1213 2.3432
-1.0679 5.846 1.4352
-1.0679 5.846 2.3432
-1.0679 6.3967 1.4352
-1.0679 6.3967 2.3432
-1.0295 6.1213 1.3015
-1.0295 6.1213 2.477
-1.0295 5.5335 1.8892
-1.0295 6.7091 1.8892
-1.0196 5.5408 1.7328
-1.0196 5.5408 2.0457
-1.0196 6.7019 1.7328
-1.0196 6.7019 2.0457
-0.98995 5.8713 1.3015
-0.98995 5.8713 2.477
-0.98995 6.3713 1.3015
-0.98995 6.3713 2.477
-0.98995 5.5623 1.5802
-0.98995 5.5623 2.1983
-0.98995 6.6803 1.5802
-0.98995 6.6803 2.1983
-0.94137 5.5976 1.4352
-0.94137 5.5976 2.3432
-0.94137 6.6451 1.4352
-0.94137 6.6451 2.3432
-0.92764 6.1213 1.1821
-0.92764 6.1213 2.5963
-0.89303 5.9028 1.1821
-0.89303 5.9028 2.5963
-0.89303 6.3398 1.1821
-0.89303 6.3398 2.5963
-0.87504 5.6458 1.3015
-0.87504 5.6458 2.477
-0.87504 6.5969 1.3015
-0.87504 6.5969 2.477
-0.80831 6.1213 1.0802
-0.80831 6.1213 2.6983
-0.80831 5.3123 1.8892
-0.80831 6.9303 1.8892
-0.80108 5.3223 1.7328
-0.80108 5.3223 2.0457
-0.80108 6.9204 1.7328
-0.80108 6.9204 2.0457
-0.79259 5.7057 1.1821
-0.79259 5.7057 2.5963
-0.79259 6.537 1.1821
-0.79259 6.537 2.5963
-0.77955 5.9397 1.0802
-0.77955 5.9397 2.6983
-0.77955 6.303 1.0802
-0.77955 6.303 2.6983
-0.77955 5.3519 1.5802
-0.77955 5.3519 2.1983
-0.77955 6.8908 1.5802
-0.77955 6.8908 2.1983
-0.74425 5.4005 1.4352
-0.74425 5.4005 2.3432
-0.74425 6.8422 1.4352
-0.74425 6.8422 2.3432
-0.69606 5.7758 1.0802
-0.69606 5.7758 2.6983
-0.69606 6.4668 1.0802
-0.69606 6.4668 2.6983
-0.69606 5.4668 1.3015
-0.69606 5.4668 2.477
-0.69606 6.7758 1.3015
-0.69606 6.7758 2.477
-0.67452 6.1213 0.99823
-0.67452 6.1213 2.7802
-0.6523 5.981 0.99823
-0.6523 5.981 2.7802
-0.6523 6.2616 0.99823
-0.6523 6.2616 2.7802
-0.63616 5.5493 1.1821
-0.63616 5.5493 2.5963
-0.63616 6.6934 1.1821
-0.63616 6.6934 2.5963
-0.58781 5.8545 0.99823
-0.58781 5.8545 2.7802
-0.58781 6.3882 0.99823
-0.58781 6.3882 2.7802
-0.56602 5.6458 1.0802
-0.56602 5.6458 2.6983
-0.56602 6.5969 1.0802
-0.56602 6.5969 2.6983
-0.52955 6.1213 0.93818
-0.52955 6.1213 2.8403
-0.52955 5.1703 1.8892
-0.52955 7.0724 1.8892
-0.52574 5.182 1.7328
-0.52574 5.182 2.0457
-0.52574 7.0607 1.7328
-0.52574 7.0607 2.0457
-0.51442 6.0258 0.93818
-0.51442 6.0258 2.8403
-0.51442 6.2168 0.93818
-0.51442 6.2168 2.8403
-0.51442 5.2168 1.5802
-0.51442 5.2168 2.1983
-0.51442 7.0258 1.5802
-0.51442 7.0258 2.1983
-0.49587 5.2739 1.4352
-0.49587 5.2739 2.3432
-0.49587 6.9687 1.4352
-0.49587 6.9687 2.3432
-0.48738 5.754 0.99823
-0.48738 5.754 2.7802
-0.48738 6.4886 0.99823
-0.48738 6.4886 2.7802
-0.47053 5.9397 0.93818
-0.47053 5.9397 2.8403
-0.47053 6.303 0.93818
-0.47053 6.303 2.8403
-0.47053 5.3519 1.3015
-0.47053 5.3519 2.477
-0.47053 6.8908 1.3015
-0.47053 6.8908 2.477
-0.43904 5.4488 1.1821
-0.43904 5.4488 2.5963
-0.43904 6.7938 1.1821
-0.43904 6.7938 2.5963
-0.40216 5.8713 0.93818
-0.40216 5.8713 2.8403
-0.40216 6.3713 0.93818
-0.40216 6.3713 2.8403
-0.40216 5.5623 1.0802
-0.40216 5.5623 2.6983
-0.40216 6.6803 1.0802
-0.40216 6.6803 2.6983
-0.37696 6.1213 0.90155
-0.37696 6.1213 2.8769
-0.36931 6.073 0.90155
-0.36931 6.073 2.8769
-0.36931 6.1697 0.90155
-0.36931 6.1697 2.8769
-0.36082 5.6896 0.99823
-0.36082 5.6896 2.7802
-0.36082 6.5531 0.99823
-0.36082 6.5531 2.7802
-0.34709 6.0294 0.90155
-0.34709 6.0294 2.8769
-0.34709 6.2133 0.90155
-0.34709 6.2133 2.8769
-0.31602 5.8274 0.93818
-0.31602 5.8274 2.8403
-0.31602 6.4152 0.93818
-0.31602 6.4152 2.8403
-0.31248 5.9948 0.90155
-0.31248 5.9948 2.8769
-0.31248 6.2479 0.90155
-0.31248 6.2479 2.8769
-0.26887 5.9726 0.90155
-0.26887 5.9726 2.8769
-0.26887 6.2701 0.90155
-0.26887 6.2701 2.8769
-0.22053 6.1213 0.88924
-0.22053 6.1213 2.8892
-0.22053 5.9649 0.90155
-0.22053 5.9649 2.8769
-0.22053 6.2778 0.90155
-0.22053 6.2778 2.8769
-0.22053 5.8123 0.93818
-0.22053 5.8123 2.8403
-0.22053 6.4303 0.93818
-0.22053 6.4303 2.8403
-0.22053 5.6673 0.99823
-0.22053 5.6673 2.7802
-0.22053 6.5753 0.99823
-0.22053 6.5753 2.7802
-0.22053 5.5335 1.0802
-0.22053 5.5335 2.6983
-0.22053 6.7091 1.0802
-0.22053 6.7091 2.6983
-0.22053 5.4142 1.1821
-0.22053 5.4142 2.5963
-0.22053 6.8284 1.1821
-0.22053 6.8284 2.5963
-0.22053 5.3123 1.3015
-0.22053 5.3123 2.477
-0.22053 6.9303 1.3015
-0.22053 6.9303 2.477
-0.22053 5.2303 1.4352
-0.22053 5.2303 2.3432
-0.22053 7.0123 1.4352
-0.22053 7.0123 2.3432
-0.22053 5.1703 1.5802
-0.22053 5.1703 2.1983
-0.22053 7.0724 1.5802
-0.22053 7.0724 2.1983
-0.22053 5.1336 1.7328
-0.22053 5.1336 2.0457
-0.22053 7.109 1.7328
-0.22053 7.109 2.0457
-0.22053 5.1213 1.8892
-0.22053 7.1213 1.8892
-0.17219 5.9726 0.90155
-0.17219 5.9726 2.8769
-0.17219 6.2701 0.90155
-0.17219 6.2701 2.8769
-0.12858 5.9948 0.90155
-0.12858 5.9948 2.8769
-0.12858 6.2479 0.90155
-0.12858 6.2479 2.8769
-0.12504 5.8274 0.93818
-0.12504 5.8274 2.8403
-0.12504 6.4152 0.93818
-0.12504 6.4152 2.8403
-0.093971 6.0294 0.90155
-0.093971 6.0294 2.8769
-0.093971 6.2133 0.90155
-0.093971 6.2133 2.8769
-0.080238 5.6896 0.99823
-0.080238 5.6896 2.7802
-0.080238 6.5531 0.99823
-0.080238 6.5531 2.7802
-0.071751 6.073 0.90155
-0.071751 6.073 2.8769
-0.071751 6.1697 0.90155
-0.071751 6.1697 2.8769
-0.064094 6.1213 0.90155
-0.064094 6.1213 2.8769
-0.038893 5.5623 1.0802
-0.038893 5.5623 2.6983
-0.038893 5.8713 0.93818
-0.038893 5.8713 2.8403
-0.038893 6.3713 0.93818
-0.038893 6.3713 2.8403
-0.038893 6.6803 1.0802
-0.038893 6.6803 2.6983
-0.0020209 5.4488 1.1821
-0.0020209 5.4488 2.5963
-0.0020209 6.7938 1.1821
-0.0020209 6.7938 2.5963
0.029471 5.3519 1.3015
0.029471 5.3519 2.477
0.029471 5.9397 0.93818
0.029471 5.9397 2.8403
0.029471 6.303 0.93818
0.029471 6.303 2.8403
0.029471 6.8908 1.3015
0.029471 6.8908 2.477
0.04632 5.754 0.99823
0.04632 5.754 2.7802
0.04632 6.4886 0.99823
0.04632 6.4886 2.7802
0.054807 5.2739 1.4352
0.054807 5.2739 2.3432
0.054807 6.9687 1.4352
0.054807 6.9687 2.3432
0.073364 5.2168 1.5802
0.073364 5.2168 2.1983
0.073364 6.0258 0.93818
0.073364 6.0258 2.8403
0.073364 6.2168 0.93818
0.073364 6.2168 2.8403
0.073364 7.0258 1.5802
0.073364 7.0258 2.1983
0.084684 5.182 1.7328
0.084684 5.182 2.0457
0.084684 7.0607 1.7328
0.084684 7.0607 2.0457
0.088488 5.1703 1.8892
0.088488 6.1213 0.93818
0.088488 6.1213 2.8403
0.088488 7.0724 1.8892
0.12496 5.6458 1.0802
0.12496 5.6458 2.6983
0.12496 6.5969 1.0802
0.12496 6.5969 2.6983
0.14676 5.8545 0.99823
0.14676 5.8545 2.7802
0.14676 6.3882 0.99823
0.14676 6.3882 2.7802
0.1951 5.5493 1.1821
0.1951 5.5493 2.5963
0.1951 6.6934 1.1821
0.1951 6.6934 2.5963
0.21124 5.981 0.99823
0.21124 5.981 2.7802
0.21124 6.2616 0.99823
0.21124 6.2616 2.7802
0.23346 6.1213 0.99823
0.23346 6.1213 2.7802
0.255 5.4668 1.3015
0.255 5.4668 2.477
0.255 5.7758 1.0802
0.255 5.7758 2.6983
0.255 6.4668 1.0802
0.255 6.4668 2.6983
0.255 6.7758 1.3015
0.255 6.7758 2.477
0.30319 5.4005 1.4352
0.30319 5.4005 2.3432
0.30319 6.8422 1.4352
0.30319 6.8422 2.3432
0.33849 5.3519 1.5802
0.33849 5.3519 2.1983
0.33849 5.9397 1.0802
0.33849 5.9397 2.6983
0.33849 6.303 1.0802
0.33849 6.303 2.6983
0.33849 6.8908 1.5802
0.33849 6.8908 2.1983
0.35153 5.7057 1.1821
0.35153 5.7057 2.5963
0.35153 6.537 1.1821
0.35153 6.537 2.5963
0.36002 5.3223 1.7328
0.36002 5.3223 2.0457
0.36002 6.9204 1.7328
0.36002 6.9204 2.0457
0.36726 5.3123 1.8892
0.36726 6.1213 1.0802
0.36726 6.1213 2.6983
0.36726 6.9303 1.8892
0.43398 5.6458 1.3015
0.43398 5.6458 2.477
0.43398 6.5969 1.3015
0.43398 6.5969 2.477
0.45197 5.9028 1.1821
0.45197 5.9028 2.5963
0.45197 6.3398 1.1821
0.45197 6.3398 2.5963
0.48658 6.1213 1.1821
0.48658 6.1213 2.5963
0.50031 5.5976 1.4352
0.50031 5.5976 2.3432
0.50031 6.6451 1.4352
0.50031 6.6451 2.3432
0.54889 5.5623 1.5802
0.54889 5.5623 2.1983
0.54889 5.8713 1.3015
0.54889 5.8713 2.477
0.54889 6.3713 1.3015
0.54889 6.3713 2.477
0.54889 6.6803 1.5802
0.54889 6.6803 2.1983
0.57853 5.5408 1.7328
0.57853 5.5408 2.0457
0.57853 6.7019 1.7328
0.57853 6.7019 2.0457
0.58849 5.5335 1.8892
0.58849 6.1213 1.3015
0.58849 6.1213 2.477
0.58849 6.7091 1.8892
0.62687 5.846 1.4352
0.62687 5.846 2.3432
0.62687 6.3967 1.4352
0.62687 6.3967 2.3432
0.67048 6.1213 1.4352
0.67048 6.1213 2.3432
0.68398 5.8274 1.5802
0.68398 5.8274 2.1983
0.68398 6.4152 1.5802
0.68398 6.4152 2.1983
0.71882 5.8161 1.7328
0.71882 5.8161 2.0457
0.71882 6.4265 1.7328
0.71882 6.4265 2.0457
0.73053 5.8123 1.8892
0.73053 6.1213 1.5802
0.73053 6.1213 2.1983
0.73053 6.4303 1.8892
0.76716 6.1213 1.7328
0.76716 6.1213 2.0457
0.77947 6.1213 1.8892
