-0.3304 1.2167 1.7326
-0.31809 1.2167 1.5762
-0.31809 1.2167 1.8891
-0.28146 0.90765 1.7326
-0.28146 1.2167 1.4236
-0.28146 1.2167 2.0416
-0.28146 1.5257 1.7326
-0.26975 0.91146 1.5762
-0.26975 0.91146 1.8891
-0.26975 1.5219 1.5762
-0.26975 1.5219 1.8891
-0.23491 0.92278 1.4236
-0.23491 0.92278 2.0416
-0.23491 1.5106 1.4236
-0.23491 1.5106 2.0416
-0.22141 1.2167 1.2786
-0.22141 1.2167 2.1866
-0.1778 0.94133 1.2786
-0.1778 0.94133 2.1866
-0.1778 1.492 1.2786
-0.1778 1.492 2.1866
-0.13942 1.2167 1.1448
-0.13942 1.2167 2.3204
-0.13942 0.62888 1.7326
-0.13942 1.8045 1.7326
-0.12946 0.63612 1.5762
-0.12946 0.63612 1.8891
-0.12946 1.7972 1.5762
-0.12946 1.7972 1.8891
-0.09982 0.96667 1.1448
-0.09982 0.96667 2.3204
-0.09982 1.4667 1.1448
-0.09982 1.4667 2.3204
-0.09982 0.65765 1.4236
-0.09982 0.65765 2.0416
-0.09982 1.7757 1.4236
-0.09982 1.7757 2.0416
-0.051238 0.69295 1.2786
-0.051238 0.69295 2.1866
-0.051238 1.7404 1.2786
-0.051238 1.7404 2.1866
-0.037506 1.2167 1.0255
-0.037506 1.2167 2.4397
-0.0028973 0.99816 1.0255
-0.0028973 0.99816 2.4397
-0.0028973 1.4352 1.0255
-0.0028973 1.4352 2.4397
0.015093 0.74114 1.1448
0.015093 0.74114 2.3204
0.015093 1.6922 1.1448
0.015093 1.6922 2.3204
0.081816 1.2167 0.92361
0.081816 1.2167 2.5416
0.081816 0.40765 1.7326
0.081816 2.0257 1.7326
0.089053 0.41761 1.5762
0.089053 0.41761 1.8891
0.089053 2.0157 1.5762
0.089053 2.0157 1.8891
0.09754 0.80104 1.0255
0.09754 0.80104 2.4397
0.09754 1.6323 1.0255
0.09754 1.6323 2.4397
0.11058 1.035 0.92361
0.11058 1.035 2.5416
0.11058 1.3983 0.92361
0.11058 1.3983 2.5416
0.11058 0.44725 1.4236
0.11058 0.44725 2.0416
0.11058 1.9861 1.4236
0.11058 1.9861 2.0416
0.14588 0.49583 1.2786
0.14588 0.49583 2.1866
0.14588 1.9375 1.2786
0.14588 1.9375 2.1866
0.19407 0.87118 0.92361
0.19407 0.87118 2.5416
0.19407 1.5622 0.92361
0.19407 1.5622 2.5416
0.19407 0.56216 1.1448
0.19407 0.56216 2.3204
0.19407 1.8712 1.1448
0.19407 1.8712 2.3204
0.21561 1.2167 0.84162
0.21561 1.2167 2.6236
0.23783 1.0764 0.84162
0.23783 1.0764 2.6236
0.23783 1.357 0.84162
0.23783 1.357 2.6236
0.25397 0.64461 1.0255
0.25397 0.64461 2.4397
0.25397 1.7887 1.0255
0.25397 1.7887 2.4397
0.30232 0.94982 0.84162
0.30232 0.94982 2.6236
0.30232 1.4835 0.84162
0.30232 1.4835 2.6236
0.32411 0.74114 0.92361
0.32411 0.74114 2.5416
0.32411 1.6922 0.92361
0.32411 1.6922 2.5416
0.36058 1.2167 0.78157
0.36058 1.2167 2.6837
0.36058 0.26561 1.7326
0.36058 2.1677 1.7326
0.36439 0.27732 1.5762
0.36439 0.27732 1.8891
0.36439 2.156 1.5762
0.36439 2.156 1.8891
0.37571 1.1212 0.78157
0.37571 1.1212 2.6837
0.37571 1.3122 0.78157
0.37571 1.3122 2.6837
0.37571 0.31216 1.4236
0.37571 0.31216 2.0416
0.37571 2.1212 1.4236
0.37571 2.1212 2.0416
0.39427 0.36927 1.2786
0.39427 0.36927 2.1866
0.39427 2.0641 1.2786
0.39427 2.0641 2.1866
0.40275 0.84938 0.84162
0.40275 0.84938 2.6236
0.40275 1.584 0.84162
0.40275 1.584 2.6236
0.4196 1.035 0.78157
0.4196 1.035 2.6837
0.4196 1.3983 0.78157
0.4196 1.3983 2.6837
0.4196 0.44725 1.1448
0.4196 0.44725 2.3204
0.4196 1.9861 1.1448
0.4196 1.9861 2.3204
0.45109 0.54417 1.0255
0.45109 0.54417 2.4397
0.45109 1.8892 1.0255
0.45109 1.8892 2.4397
0.48797 0.96667 0.78157
0.48797 0.96667 2.6837
0.48797 1.4667 0.78157
0.48797 1.4667 2.6837
0.48797 0.65765 0.92361
0.48797 0.65765 2.5416
0.48797 1.7757 0.92361
0.48797 1.7757 2.5416
0.51317 1.2167 0.74494
0.51317 1.2167 2.7203
0.52082 1.1683 0.74494
0.52082 1.1683 2.7203
0.52082 1.265 0.74494
0.52082 1.265 2.7203
0.52931 0.7849 0.84162
0.52931 0.7849 2.6236
0.52931 1.6484 0.84162
0.52931 1.6484 2.6236
0.54304 1.1247 0.74494
0.54304 1.1247 2.7203
0.54304 1.3086 0.74494
0.54304 1.3086 2.7203
0.57411 0.92278 0.78157
0.57411 0.92278 2.6837
0.57411 1.5106 0.78157
0.57411 1.5106 2.6837
0.57765 1.0901 0.74494
0.57765 1.0901 2.7203
0.57765 1.3432 0.74494
0.57765 1.3432 2.7203
0.62126 1.0679 0.74494
0.62126 1.0679 2.7203
0.62126 1.3654 0.74494
0.62126 1.3654 2.7203
0.6696 1.2167 0.73263
0.6696 1.2167 2.7326
0.6696 1.0602 0.74494
0.6696 1.0602 2.7203
0.6696 1.3731 0.74494
0.6696 1.3731 2.7203
0.6696 0.90765 0.78157
0.6696 0.90765 2.6837
0.6696 1.5257 0.78157
0.6696 1.5257 2.6837
0.6696 0.76268 0.84162
0.6696 0.76268 2.6236
0.6696 1.6707 0.84162
0.6696 1.6707 2.6236
0.6696 0.62888 0.92361
0.6696 0.62888 2.5416
0.6696 1.8045 0.92361
0.6696 1.8045 2.5416
0.6696 0.50956 1.0255
0.6696 0.50956 2.4397
0.6696 1.9238 1.0255
0.6696 1.9238 2.4397
0.6696 0.40765 1.1448
0.6696 0.40765 2.3204
0.6696 2.0257 1.1448
0.6696 2.0257 2.3204
0.6696 0.32566 1.2786
0.6696 0.32566 2.1866
0.6696 2.1077 1.2786
0.6696 2.1077 2.1866
0.6696 0.26561 1.4236
0.6696 0.26561 2.0416
0.6696 2.1677 1.4236
0.6696 2.1677 2.0416
0.6696 0.22898 1.5762
0.6696 0.22898 1.8891
0.6696 2.2044 1.5762
0.6696 2.2044 1.8891
0.6696 0.21667 1.7326
0.6696 2.2167 1.7326
0.71794 1.0679 0.74494
0.71794 1.0679 2.7203
0.71794 1.3654 0.74494
0.71794 1.3654 2.7203
0.76155 1.0901 0.74494
0.76155 1.0901 2.7203
0.76155 1.3432 0.74494
0.76155 1.3432 2.7203
0.76509 0.92278 0.78157
0.76509 0.92278 2.6837
0.76509 1.5106 0.78157
0.76509 1.5106 2.6837
0.79616 1.1247 0.74494
0.79616 1.1247 2.7203
0.79616 1.3086 0.74494
0.79616 1.3086 2.7203
0.80989 0.7849 0.84162
0.80989 0.7849 2.6236
0.80989 1.6484 0.84162
0.80989 1.6484 2.6236
0.81838 1.1683 0.74494
0.81838 1.1683 2.7203
0.81838 1.265 0.74494
0.81838 1.265 2.7203
0.82604 1.2167 0.74494
0.82604 1.2167 2.7203
0.85124 0.65765 0.92361
0.85124 0.65765 2.5416
0.85124 0.96667 0.78157
0.85124 0.96667 2.6837
0.85124 1.4667 0.78157
0.85124 1.4667 2.6837
0.85124 1.7757 0.92361
0.85124 1.7757 2.5416
0.88811 0.54417 1.0255
0.88811 0.54417 2.4397
0.88811 1.8892 1.0255
0.88811 1.8892 2.4397
0.9196 0.44725 1.1448
0.9196 0.44725 2.3204
0.9196 1.035 0.78157
0.9196 1.035 2.6837
0.9196 1.3983 0.78157
0.9196 1.3983 2.6837
0.9196 1.9861 1.1448
0.9196 1.9861 2.3204
0.93645 0.84938 0.84162
0.93645 0.84938 2.6236
0.93645 1.584 0.84162
0.93645 1.584 2.6236
0.94494 0.36927 1.2786
0.94494 0.36927 2.1866
0.94494 2.0641 1.2786
0.94494 2.0641 2.1866
0.96349 0.31216 1.4236
0.96349 0.31216 2.0416
0.96349 1.1212 0.78157
0.96349 1.1212 2.6837
0.96349 1.3122 0.78157
0.96349 1.3122 2.6837
0.96349 2.1212 1.4236
0.96349 2.1212 2.0416
0.97481 0.27732 1.5762
0.97481 0.27732 1.8891
0.97481 2.156 1.5762
0.97481 2.156 1.8891
0.97862 0.26561 1.7326
0.97862 1.2167 0.78157
0.97862 1.2167 2.6837
0.97862 2.1677 1.7326
1.0151 0.74114 0.92361
1.0151 0.74114 2.5416
1.0151 1.6922 0.92361
1.0151 1.6922 2.5416
1.0369 0.94982 0.84162
1.0369 0.94982 2.6236
1.0369 1.4835 0.84162
1.0369 1.4835 2.6236
1.0852 0.64461 1.0255
1.0852 0.64461 2.4397
1.0852 1.7887 1.0255
1.0852 1.7887 2.4397
1.1014 1.0764 0.84162
1.1014 1.0764 2.6236
1.1014 1.357 0.84162
1.1014 1.357 2.6236
1.1236 1.2167 0.84162
1.1236 1.2167 2.6236
1.1451 0.56216 1.1448
1.1451 0.56216 2.3204
1.1451 0.87118 0.92361
1.1451 0.87118 2.5416
1.1451 1.5622 0.92361
1.1451 1.5622 2.5416
1.1451 1.8712 1.1448
1.1451 1.8712 2.3204
1.1933 0.49583 1.2786
1.1933 0.49583 2.1866
1.1933 1.9375 1.2786
1.1933 1.9375 2.1866
1.2286 0.44725 1.4236
1.2286 0.44725 2.0416
1.2286 1.035 0.92361
1.2286 1.035 2.5416
1.2286 1.3983 0.92361
1.2286 1.3983 2.5416
1.2286 1.9861 1.4236
1.2286 1.9861 2.0416
1.2417 0.80104 1.0255
1.2417 0.80104 2.4397
1.2417 1.6323 1.0255
1.2417 1.6323 2.4397
1.2501 0.41761 1.5762
1.2501 0.41761 1.8891
1.2501 2.0157 1.5762
1.2501 2.0157 1.8891
1.2574 0.40765 1.7326
1.2574 1.2167 0.92361
1.2574 1.2167 2.5416
1.2574 2.0257 1.7326
1.3241 0.74114 1.1448
1.3241 0.74114 2.3204
1.3241 1.6922 1.1448
1.3241 1.6922 2.3204
1.3421 0.99816 1.0255
1.3421 0.99816 2.4397
1.3421 1.4352 1.0255
1.3421 1.4352 2.4397
1.3767 1.2167 1.0255
1.3767 1.2167 2.4397
1.3904 0.69295 1.2786
1.3904 0.69295 2.1866
1.3904 1.7404 1.2786
1.3904 1.7404 2.1866
1.439 0.65765 1.4236
1.439 0.65765 2.0416
1.439 0.96667 1.1448
1.439 0.96667 2.3204
1.439 1.4667 1.1448
1.439 1.4667 2.3204
1.439 1.7757 1.4236
1.439 1.7757 2.0416
1.4687 0.63612 1.5762
1.4687 0.63612 1.8891
1.4687 1.7972 1.5762
1.4687 1.7972 1.8891
1.4786 0.62888 1.7326
1.4786 1.2167 1.1448
1.4786 1.2167 2.3204
1.4786 1.8045 1.7326
1.517 0.94133 1.2786
1.517 0.94133 2.1866
1.517 1.492 1.2786
1.517 1.492 2.1866
1.5606 1.2167 1.2786
1.5606 1.2167 2.1866
1.5741 0.92278 1.4236
1.5741 0.92278 2.0416
1.5741 1.5106 1.4236
1.5741 1.5106 2.0416
1.6089 0.91146 1.5762
1.6089 0.91146 1.8891
1.6089 1.5219 1.5762
1.6089 1.5219 1.8891
1.6207 0.90765 1.7326
1.6207 1.2167 1.4236
1.6207 1.2167 2.0416
1.6207 1.5257 1.7326
1.6573 1.2167 1.5762
1.6573 1.2167 1.8891
1.6696 1.2167 1.7326
