-8.1699 -8.9986 4.8292
-8.1576 -8.9986 4.6727
-8.1576 -8.9986 4.9856
-8.1209 -9.3076 4.8292
-8.1209 -8.9986 4.5201
-8.1209 -8.9986 5.1382
-8.1209 -8.6896 4.8292
-8.1092 -9.3038 4.6727
-8.1092 -9.3038 4.9856
-8.1092 -8.6934 4.6727
-8.1092 -8.6934 4.9856
-8.0744 -9.2925 4.5201
-8.0744 -9.2925 5.1382
-8.0744 -8.7047 4.5201
-8.0744 -8.7047 5.1382
-8.0609 -8.9986 4.3752
-8.0609 -8.9986 5.2832
-8.0173 -9.274 4.3752
-8.0173 -9.274 5.2832
-8.0173 -8.7233 4.3752
-8.0173 -8.7233 5.2832
-7.9789 -8.9986 4.2414
-7.9789 -8.9986 5.4169
-7.9789 -9.5864 4.8292
-7.9789 -8.4108 4.8292
-7.9689 -9.5792 4.6727
-7.9689 -9.5792 4.9856
-7.9689 -8.4181 4.6727
-7.9689 -8.4181 4.9856
-7.9393 -9.2486 4.2414
-7.9393 -9.2486 5.4169
-7.9393 -8.7486 4.2414
-7.9393 -8.7486 5.4169
-7.9393 -9.5576 4.5201
-7.9393 -9.5576 5.1382
-7.9393 -8.4396 4.5201
-7.9393 -8.4396 5.1382
-7.8907 -9.5223 4.3752
-7.8907 -9.5223 5.2832
-7.8907 -8.4749 4.3752
-7.8907 -8.4749 5.2832
-7.877 -8.9986 4.1221
-7.877 -8.9986 5.5363
-7.8424 -9.2171 4.1221
-7.8424 -9.2171 5.5363
-7.8424 -8.7801 4.1221
-7.8424 -8.7801 5.5363
-7.8244 -9.4742 4.2414
-7.8244 -9.4742 5.4169
-7.8244 -8.5231 4.2414
-7.8244 -8.5231 5.4169
-7.7577 -8.9986 4.0201
-7.7577 -8.9986 5.6382
-7.7577 -9.8076 4.8292
-7.7577 -8.1896 4.8292
-7.7504 -9.7977 4.6727
-7.7504 -9.7977 4.9856
-7.7504 -8.1996 4.6727
-7.7504 -8.1996 4.9856
-7.742 -9.4142 4.1221
-7.742 -9.4142 5.5363
-7.742 -8.583 4.1221
-7.742 -8.583 5.5363
-7.7289 -9.1803 4.0201
-7.7289 -9.1803 5.6382
-7.7289 -8.817 4.0201
-7.7289 -8.817 5.6382
-7.7289 -9.768 4.5201
-7.7289 -9.768 5.1382
-7.7289 -8.2292 4.5201
-7.7289 -8.2292 5.1382
-7.6936 -9.7195 4.3752
-7.6936 -9.7195 5.2832
-7.6936 -8.2778 4.3752
-7.6936 -8.2778 5.2832
-7.6454 -9.3441 4.0201
-7.6454 -9.3441 5.6382
-7.6454 -8.6531 4.0201
-7.6454 -8.6531 5.6382
-7.6454 -9.6531 4.2414
-7.6454 -9.6531 5.4169
-7.6454 -8.3441 4.2414
-7.6454 -8.3441 5.4169
-7.6239 -8.9986 3.9382
-7.6239 -8.9986 5.7202
-7.6017 -9.1389 3.9382
-7.6017 -9.1389 5.7202
-7.6017 -8.8583 3.9382
-7.6017 -8.8583 5.7202
-7.5855 -9.5707 4.1221
-7.5855 -9.5707 5.5363
-7.5855 -8.4266 4.1221
-7.5855 -8.4266 5.5363
-7.5372 -9.2655 3.9382
-7.5372 -9.2655 5.7202
-7.5372 -8.7318 3.9382
-7.5372 -8.7318 5.7202
-7.5154 -9.4742 4.0201
-7.5154 -9.4742 5.6382
-7.5154 -8.5231 4.0201
-7.5154 -8.5231 5.6382
-7.4789 -8.9986 3.8781
-7.4789 -8.9986 5.7802
-7.4789 -9.9497 4.8292
-7.4789 -8.0476 4.8292
-7.4751 -9.938 4.6727
-7.4751 -9.938 4.9856
-7.4751 -8.0593 4.6727
-7.4751 -8.0593 4.9856
-7.4638 -9.0941 3.8781
-7.4638 -9.0941 5.7802
-7.4638 -8.9031 3.8781
-7.4638 -8.9031 5.7802
-7.4638 -9.9031 4.5201
-7.4638 -9.9031 5.1382
-7.4638 -8.0941 4.5201
-7.4638 -8.0941 5.1382
-7.4452 -9.846 4.3752
-7.4452 -9.846 5.2832
-7.4452 -8.1512 4.3752
-7.4452 -8.1512 5.2832
-7.4367 -9.3659 3.9382
-7.4367 -9.3659 5.7202
-7.4367 -8.6313 3.9382
-7.4367 -8.6313 5.7202
-7.4199 -9.1803 3.8781
-7.4199 -9.1803 5.7802
-7.4199 -8.817 3.8781
-7.4199 -8.817 5.7802
-7.4199 -9.768 4.2414
-7.4199 -9.768 5.4169
-7.4199 -8.2292 4.2414
-7.4199 -8.2292 5.4169
-7.3884 -9.6711 4.1221
-7.3884 -9.6711 5.5363
-7.3884 -8.3261 4.1221
-7.3884 -8.3261 5.5363
-7.3515 -9.2486 3.8781
-7.3515 -9.2486 5.7802
-7.3515 -8.7486 3.8781
-7.3515 -8.7486 5.7802
-7.3515 -9.5576 4.0201
-7.3515 -9.5576 5.6382
-7.3515 -8.4396 4.0201
-7.3515 -8.4396 5.6382
-7.3263 -8.9986 3.8415
-7.3263 -8.9986 5.8169
-7.3187 -9.047 3.8415
-7.3187 -9.047 5.8169
-7.3187 -8.9503 3.8415
-7.3187 -8.9503 5.8169
-7.3102 -9.4304 3.9382
-7.3102 -9.4304 5.7202
-7.3102 -8.5669 3.9382
-7.3102 -8.5669 5.7202
-7.2964 -9.0906 3.8415
-7.2964 -9.0906 5.8169
-7.2964 -8.9067 3.8415
-7.2964 -8.9067 5.8169
-7.2654 -9.2925 3.8781
-7.2654 -9.2925 5.7802
-7.2654 -8.7047 3.8781
-7.2654 -8.7047 5.7802
-7.2618 -9.1252 3.8415
-7.2618 -9.1252 5.8169
-7.2618 -8.8721 3.8415
-7.2618 -8.8721 5.8169
-7.2182 -9.1474 3.8415
-7.2182 -9.1474 5.8169
-7.2182 -8.8498 3.8415
-7.2182 -8.8498 5.8169
-7.1699 -8.9986 3.8292
-7.1699 -8.9986 5.8292
-7.1699 -9.1551 3.8415
-7.1699 -9.1551 5.8169
-7.1699 -8.8422 3.8415
-7.1699 -8.8422 5.8169
-7.1699 -9.3076 3.8781
-7.1699 -9.3076 5.7802
-7.1699 -8.6896 3.8781
-7.1699 -8.6896 5.7802
-7.1699 -9.4526 3.9382
-7.1699 -9.4526 5.7202
-7.1699 -8.5446 3.9382
-7.1699 -8.5446 5.7202
-7.1699 -9.5864 4.0201
-7.1699 -9.5864 5.6382
-7.1699 -8.4108 4.0201
-7.1699 -8.4108 5.6382
-7.1699 -9.7057 4.1221
-7.1699 -9.7057 5.5363
-7.1699 -8.2915 4.1221
-7.1699 -8.2915 5.5363
-7.1699 -9.8076 4.2414
-7.1699 -9.8076 5.4169
-7.1699 -8.1896 4.2414
-7.1699 -8.1896 5.4169
-7.1699 -9.8896 4.3752
-7.1699 -9.8896 5.2832
-7.1699 -8.1076 4.3752
-7.1699 -8.1076 5.2832
-7.1699 -9.9497 4.5201
-7.1699 -9.9497 5.1382
-7.1699 -8.0476 4.5201
-7.1699 -8.0476 5.1382
-7.1699 -9.9863 4.6727
-7.1699 -9.9863 4.9856
-7.1699 -8.0109 4.6727
-7.1699 -8.0109 4.9856
-7.1699 -9.9986 4.8292
-7.1699 -7.9986 4.8292
-7.1216 -9.1474 3.8415
-7.1216 -9.1474 5.8169
-7.1216 -8.8498 3.8415
-7.1216 -8.8498 5.8169
-7.0779 -9.1252 3.8415
-7.0779 -9.1252 5.8169
-7.0779 -8.8721 3.8415
-7.0779 -8.8721 5.8169
-7.0744 -9.2925 3.8781
-7.0744 -9.2925 5.7802
-7.0744 -8.7047 3.8781
-7.0744 -8.7047 5.7802
-7.0433 -9.0906 3.8415
-7.0433 -9.0906 5.8169
-7.0433 -8.9067 3.8415
-7.0433 -8.9067 5.8169
-7.0296 -9.4304 3.9382
-7.0296 -9.4304 5.7202
-7.0296 -8.5669 3.9382
-7.0296 -8.5669 5.7202
-7.0211 -9.047 3.8415
-7.0211 -9.047 5.8169
-7.0211 -8.9503 3.8415
-7.0211 -8.9503 5.8169
-7.0135 -8.9986 3.8415
-7.0135 -8.9986 5.8169
-6.9883 -9.5576 4.0201
-6.9883 -9.5576 5.6382
-6.9883 -9.2486 3.8781
-6.9883 -9.2486 5.7802
-6.9883 -8.7486 3.8781
-6.9883 -8.7486 5.7802
-6.9883 -8.4396 4.0201
-6.9883 -8.4396 5.6382
-6.9514 -9.6711 4.1221
-6.9514 -9.6711 5.5363
-6.9514 -8.3261 4.1221
-6.9514 -8.3261 5.5363
-6.9199 -9.768 4.2414
-6.9199 -9.768 5.4169
-6.9199 -9.1803 3.8781
-6.9199 -9.1803 5.7802
-6.9199 -8.817 3.8781
-6.9199 -8.817 5.7802
-6.9199 -8.2292 4.2414
-6.9199 -8.2292 5.4169
-6.903 -9.3659 3.9382
-6.903 -9.3659 5.7202
-6.903 -8.6313 3.9382
-6.903 -8.6313 5.7202
-6.8946 -9.846 4.3752
-6.8946 -9.846 5.2832
-6.8946 -8.1512 4.3752
-6.8946 -8.1512 5.2832
-6.876 -9.9031 4.5201
-6.876 -9.9031 5.1382
-6.876 -9.0941 3.8781
-6.876 -9.0941 5.7802
-6.876 -8.9031 3.8781
-6.876 -8.9031 5.7802
-6.876 -8.0941 4.5201
-6.876 -8.0941 5.1382
-6.8647 -9.938 4.6727
-6.8647 -9.938 4.9856
-6.8647 -8.0593 4.6727
-6.8647 -8.0593 4.9856
-6.8609 -9.9497 4.8292
-6.8609 -8.9986 3.8781
-6.8609 -8.9986 5.7802
-6.8609 -8.0476 4.8292
-6.8244 -9.4742 4.0201
-6.8244 -9.4742 5.6382
-6.8244 -8.5231 4.0201
-6.8244 -8.5231 5.6382
-6.8026 -9.2655 3.9382
-6.8026 -9.2655 5.7202
-6.8026 -8.7318 3.9382
-6.8026 -8.7318 5.7202
-6.7543 -9.5707 4.1221
-6.7543 -9.5707 5.5363
-6.7543 -8.4266 4.1221
-6.7543 -8.4266 5.5363
-6.7381 -9.1389 3.9382
-6.7381 -9.1389 5.7202
-6.7381 -8.8583 3.9382
-6.7381 -8.8583 5.7202
-6.7159 -8.9986 3.9382
-6.7159 -8.9986 5.7202
-6.6944 -9.6531 4.2414
-6.6944 -9.6531 5.4169
-6.6944 -9.3441 4.0201
-6.6944 -9.3441 5.6382
-6.6944 -8.6531 4.0201
-6.6944 -8.6531 5.6382
-6.6944 -8.3441 4.2414
-6.6944 -8.3441 5.4169
-6.6462 -9.7195 4.3752
-6.6462 -9.7195 5.2832
-6.6462 -8.2778 4.3752
-6.6462 -8.2778 5.2832
-6.6109 -9.768 4.5201
-6.6109 -9.768 5.1382
-6.6109 -9.1803 4.0201
-6.6109 -9.1803 5.6382
-6.6109 -8.817 4.0201
-6.6109 -8.817 5.6382
-6.6109 -8.2292 4.5201
-6.6109 -8.2292 5.1382
-6.5978 -9.4142 4.1221
-6.5978 -9.4142 5.5363
-6.5978 -8.583 4.1221
-6.5978 -8.583 5.5363
-6.5893 -9.7977 4.6727
-6.5893 -9.7977 4.9856
-6.5893 -8.1996 4.6727
-6.5893 -8.1996 4.9856
-6.5821 -9.8076 4.8292
-6.5821 -8.9986 4.0201
-6.5821 -8.9986 5.6382
-6.5821 -8.1896 4.8292
-6.5154 -9.4742 4.2414
-6.5154 -9.4742 5.4169
-6.5154 -8.5231 4.2414
-6.5154 -8.5231 5.4169
-6.4974 -9.2171 4.1221
-6.4974 -9.2171 5.5363
-6.4974 -8.7801 4.1221
-6.4974 -8.7801 5.5363
-6.4628 -8.9986 4.1221
-6.4628 -8.9986 5.5363
-6.4491 -9.5223 4.3752
-6.4491 -9.5223 5.2832
-6.4491 -8.4749 4.3752
-6.4491 -8.4749 5.2832
-6.4005 -9.5576 4.5201
-6.4005 -9.5576 5.1382
-6.4005 -9.2486 4.2414
-6.4005 -9.2486 5.4169
-6.4005 -8.7486 4.2414
-6.4005 -8.7486 5.4169
-6.4005 -8.4396 4.5201
-6.4005 -8.4396 5.1382
-6.3708 -9.5792 4.6727
-6.3708 -9.5792 4.9856
-6.3708 -8.4181 4.6727
-6.3708 -8.4181 4.9856
-6.3609 -9.5864 4.8292
-6.3609 -8.9986 4.2414
-6.3609 -8.9986 5.4169
-6.3609 -8.4108 4.8292
-6.3225 -9.274 4.3752
-6.3225 -9.274 5.2832
-6.3225 -8.7233 4.3752
-6.3225 -8.7233 5.2832
-6.2789 -8.9986 4.3752
-6.2789 -8.9986 5.2832
-6.2654 -9.2925 4.5201
-6.2654 -9.2925 5.1382
-6.2654 -8.7047 4.5201
-6.2654 -8.7047 5.1382
-6.2305 -9.3038 4.6727
-6.2305 -9.3038 4.9856
-6.2305 -8.6934 4.6727
-6.2305 -8.6934 4.9856
-6.2188 -9.3076 4.8292
-6.2188 -8.9986 4.5201
-6.2188 -8.9986 5.1382
-6.2188 -8.6896 4.8292
-6.1822 -8.9986 4.6727
-6.1822 -8.9986 4.9856
-6.1699 -8.9986 4.8292
