-0.306456 -1.17003 -0.0286187
-0.298746 -1.17878 -0.0289449
-0.359003 -1.16146 -0.0203442
-0.345053 -1.16695 -0.0232731
-0.333806 -1.16325 -0.0238361
-0.323609 -1.16086 -0.0273616
-0.316008 -1.16522 -0.0281491
-0.309728 -1.16634 -0.0253573
-0.356419 -1.1524 -0.02293
-0.343199 -1.15371 -0.0237833
-0.333382 -1.15654 -0.0273868
-0.35349 -1.14355 -0.0240381
-0.34437 -1.1443 -0.0263658
-0.335443 -1.14716 -0.0285012
-0.316665 -1.14864 -0.0276344
-0.365965 -1.13794 -0.0226347
-0.351615 -1.13151 -0.0252935
-0.343194 -1.13672 -0.0251341
-0.336758 -1.13377 -0.0285106
-0.378787 -1.12862 -0.0220015
-0.363765 -1.12608 -0.027503
-0.35731 -1.12586 -0.0279992
-0.34375 -1.12332 -0.0254023
-0.388361 -1.11399 -0.0216051
-0.372981 -1.11704 -0.0260739
-0.363937 -1.11426 -0.0248022
-0.35687 -1.11767 -0.0248241
-0.349684 -1.11564 -0.0266398
-0.335015 -1.11519 -0.0286175
-0.384382 -1.10326 -0.0267384
-0.374472 -1.10623 -0.0240445
-0.365669 -1.10476 -0.0260416
-0.35957 -1.10656 -0.0275864
-0.39597 -1.09546 -0.0228235
-0.381162 -1.09284 -0.0206055
-0.374179 -1.09399 -0.0270474
-0.367261 -1.09503 -0.0256954
-0.407425 -1.08615 -0.0208755
-0.395825 -1.08577 -0.0265681
-0.384463 -1.08118 -0.0201108
-0.372066 -1.08415 -0.0252505
-0.419152 -1.07637 -0.0206622
-0.405092 -1.0763 -0.0260992
-0.396215 -1.0749 -0.0277519
-0.382691 -1.0769 -0.0260064
-0.377549 -1.07833 -0.025396
-0.415374 -1.06662 -0.0238695
-0.40565 -1.06287 -0.0270352
-0.381256 -1.06478 -0.0246815
-0.426445 -1.05969 -0.0202084
-0.413241 -1.05448 -0.0266063
-0.404634 -1.05113 -0.0233572
-0.394677 -1.05744 -0.0255816
-0.430742 -1.04395 -0.0258273
-0.422873 -1.04025 -0.0255731
-0.417051 -1.0429 -0.0254769
-0.398872 -1.04232 -0.029308
-0.435856 -1.0332 -0.0254926
-0.427623 -1.0326 -0.0223445
-0.410979 -1.03786 -0.0258007
-0.440591 -1.02165 -0.0247555
-0.431645 -1.02537 -0.0279673
-0.423255 -1.02575 -0.0265935
-0.413438 -1.02598 -0.025968
-0.408764 -1.02934 -0.02379
-0.451332 -1.01228 -0.022621
-0.441877 -1.01271 -0.0250969
-0.435885 -1.01558 -0.0251733
-0.426451 -1.01994 -0.0211144
-0.419689 -1.01593 -0.0256436
-0.45196 -1.0043 -0.0255925
-0.446083 -1.00503 -0.0229664
-0.439138 -1.00519 -0.0235361
-0.427591 -1.00669 -0.0254162
-0.453859 -0.990515 -0.0251274
-0.444794 -0.994994 -0.0244909
-0.438771 -0.999419 -0.0253933
-0.464127 -0.98322 -0.0206238
-0.456946 -0.986469 -0.0248517
-0.437641 -0.985141 -0.0246617
-0.478246 -0.974834 -0.02183
-0.466238 -0.974074 -0.0231347
-0.452735 -0.974551 -0.0266164
-0.443372 -0.974631 -0.0243306
-0.48506 -0.960089 -0.021492
-0.478263 -0.96344 -0.0240378
-0.464518 -0.967312 -0.0252657
-0.488289 -0.951757 -0.0240566
-0.474866 -0.956614 -0.0248589
-0.467267 -0.955644 -0.025669
-0.495606 -0.944784 -0.0224598
-0.48129 -0.940733 -0.0250813
-0.473885 -0.945283 -0.0253928
-0.467134 -0.945922 -0.0249826
-0.505395 -0.939815 -0.0211513
-0.49244 -0.931628 -0.0249784
-0.48491 -0.937021 -0.0249346
-0.477788 -0.932766 -0.0262242
-0.507034 -0.92667 -0.0230407
-0.494314 -0.925534 -0.0227286
-0.48622 -0.924536 -0.0259961
-0.512088 -0.913718 -0.0238168
-0.501741 -0.914371 -0.0224872
-0.496689 -0.915323 -0.0246885
-0.526518 -0.906914 -0.0229376
-0.514628 -0.902395 -0.0221948
-0.506397 -0.903123 -0.0251619
-0.483511 -0.905717 -0.0275633
-0.522413 -0.895356 -0.0223542
-0.516155 -0.895929 -0.0261614
-0.505539 -0.891433 -0.0252529
-0.496804 -0.899048 -0.0276739
-0.533169 -0.885908 -0.0200285
-0.527571 -0.883611 -0.0243561
-0.518119 -0.884702 -0.0237607
-0.507691 -0.889902 -0.0206161
-0.535076 -0.872986 -0.0246391
-0.528116 -0.876412 -0.0240135
-0.512809 -0.87894 -0.0272876
-0.554571 -0.861269 -0.0229562
-0.542486 -0.864001 -0.0224191
-0.534257 -0.863884 -0.0249063
-0.517114 -0.866751 -0.0268967
-0.546055 -0.856161 -0.0253042
-0.538398 -0.851216 -0.0246339
-0.560203 -0.843455 -0.0227577
-0.554423 -0.844844 -0.0247392
-0.547066 -0.845931 -0.0237851
-0.539359 -0.849571 -0.0268889
-0.564848 -0.836143 -0.0258246
-0.553484 -0.836483 -0.022875
-0.570632 -0.822407 -0.0245745
-0.563506 -0.824552 -0.022372
-0.557859 -0.823878 -0.0243374
-0.580607 -0.815416 -0.0220603
-0.574411 -0.8134 -0.022965
-0.566656 -0.814756 -0.0259241
-0.59028 -0.801615 -0.0244516
-0.582038 -0.804792 -0.0217921
-0.575457 -0.805527 -0.0231977
-0.590882 -0.793232 -0.0279635
-0.588458 -0.795112 -0.0211961
-0.574552 -0.797249 -0.0267714
-0.592477 -0.783762 -0.0235521
-0.585155 -0.78753 -0.0219046
-0.579346 -0.786596 -0.0231616
-0.609414 -0.779925 -0.024312
-0.592023 -0.775799 -0.0240185
-0.587708 -0.777381 -0.0209088
-0.61302 -0.767101 -0.0239708
-0.603379 -0.765311 -0.0243071
-0.597151 -0.765957 -0.0233697
-0.624136 -0.75636 -0.0239826
-0.612241 -0.755476 -0.0274635
-0.607156 -0.755934 -0.0215684
-0.633182 -0.744883 -0.023902
-0.622371 -0.744665 -0.0235819
-0.614448 -0.745762 -0.0233106
-0.607394 -0.74565 -0.0214277
-0.634946 -0.731264 -0.0245593
-0.623149 -0.733254 -0.0235109
-0.616196 -0.739638 -0.0252542
-0.644613 -0.721762 -0.023594
-0.632708 -0.724763 -0.0229814
-0.622314 -0.721592 -0.0211868
-0.650569 -0.714777 -0.0270335
-0.643151 -0.719473 -0.0244503
-0.636733 -0.713182 -0.0217332
-0.621103 -0.71593 -0.0220154
-0.652644 -0.705435 -0.0243258
-0.64696 -0.707034 -0.0229638
-0.639145 -0.700122 -0.0210411
-0.665966 -0.695994 -0.0234488
-0.656743 -0.695911 -0.0232693
-0.67225 -0.683164 -0.0232685
-0.662845 -0.683972 -0.0233367
-0.658324 -0.683349 -0.0237967
-0.646931 -0.687922 -0.0214015
-0.680324 -0.67048 -0.0231691
-0.674429 -0.67098 -0.0250377
-0.667557 -0.672985 -0.0243689
-0.685478 -0.667117 -0.0247869
-0.676406 -0.661993 -0.0228127
-0.669463 -0.66933 -0.0214
-0.693242 -0.652426 -0.0285479
-0.6852 -0.655945 -0.0236478
-0.668073 -0.653209 -0.0215554
-0.702353 -0.641618 -0.0274663
-0.694999 -0.643834 -0.0223211
-0.682814 -0.64825 -0.0212464
-0.717817 -0.630148 -0.028699
-0.703004 -0.632399 -0.0238846
-0.694209 -0.639523 -0.0212392
-0.684473 -0.633204 -0.0214662
-0.714529 -0.621114 -0.0231486
-0.703135 -0.628457 -0.0225295
-0.697702 -0.627095 -0.0211443
-0.725824 -0.618268 -0.0275802
-0.713957 -0.611463 -0.0299821
-0.70558 -0.615841 -0.0211788
-0.724506 -0.603526 -0.0256665
-0.713525 -0.606534 -0.0220336
-0.708008 -0.602252 -0.0213305
-0.743044 -0.59064 -0.0231847
-0.734235 -0.593908 -0.0249427
-0.722367 -0.596682 -0.0232352
-0.752505 -0.580106 -0.0264108
-0.745808 -0.584431 -0.0207186
-0.733188 -0.584766 -0.0251597
-0.728706 -0.58448 -0.0209775
-0.745888 -0.576768 -0.0254985
-0.732991 -0.571729 -0.0208016
-0.762857 -0.563917 -0.0257765
-0.752415 -0.565197 -0.0269418
-0.745442 -0.56475 -0.020768
-0.773181 -0.553666 -0.0209463
-0.769131 -0.552574 -0.0272498
-0.756676 -0.554628 -0.0220739
-0.747448 -0.55075 -0.0211975
-0.774906 -0.543853 -0.0241635
-0.763512 -0.549937 -0.0299535
-0.757532 -0.541918 -0.0212474
-0.783315 -0.535939 -0.0258011
-0.774592 -0.536466 -0.0243536
-0.768643 -0.532461 -0.0207106
-0.755216 -0.538973 -0.0204578
-0.795127 -0.524522 -0.0247498
-0.784019 -0.52536 -0.0255733
-0.775274 -0.521387 -0.0209661
-0.76075 -0.528597 -0.021105
-0.794808 -0.511027 -0.026437
-0.784896 -0.516645 -0.0228841
-0.776062 -0.519202 -0.0204618
-0.808627 -0.500825 -0.0234015
-0.793704 -0.503655 -0.0206318
-0.781241 -0.508831 -0.0207332
-0.740413 -0.505664 -0.029831
-0.802258 -0.497149 -0.0279835
-0.799601 -0.495882 -0.0249362
-0.783176 -0.496264 -0.0210591
-0.736128 -0.49713 -0.0274715
-0.822028 -0.481253 -0.025447
-0.816576 -0.484012 -0.0281937
-0.807058 -0.48505 -0.023279
-0.786167 -0.486004 -0.0222304
-0.735878 -0.489438 -0.0233805
-0.837316 -0.467936 -0.0237424
-0.804278 -0.465779 -0.0254053
-0.798236 -0.465381 -0.0242084
0.439657 -2.29363 -0.0116365
0.468478 -2.28654 -0.015155
0.421714 -2.2746 -0.0135377
0.474155 -2.27946 -0.0127259
0.412622 -2.26486 -0.013791
0.406694 -2.25587 -0.0159295
0.403498 -2.23353 -0.019658
0.375797 -2.20897 -0.012986
0.374229 -2.19537 -0.0130141
0.395311 -2.19233 -0.0119431
0.386177 -2.17329 -0.0108922
0.360231 -2.16153 -0.0116476
0.372939 -2.16885 -0.0158925
0.316034 -2.15044 -0.0151763
0.368979 -2.15011 -0.017896
0.339128 -2.14047 -0.0120418
0.351364 -2.14873 -0.0106937
0.312678 -2.13727 -0.014541
0.336449 -2.13297 -0.0122828
0.34194 -2.13379 -0.0135642
0.308488 -2.12877 -0.0120426
0.311031 -2.12621 -0.0118593
0.331427 -2.12796 -0.0188648
0.356952 -2.12639 -0.0190528
0.305216 -2.11105 -0.0183088
0.33959 -2.11004 -0.0169466
0.315362 -2.1097 -0.0104159
0.321672 -2.10044 -0.0111423
0.298205 -2.09753 -0.0191852
0.290888 -2.07416 -0.018938
0.284312 -2.06668 -0.017846
0.286596 -2.05458 -0.010747
0.277819 -2.04304 -0.0137371
0.285386 -2.04706 -0.0143602
0.290543 -2.04706 -0.0186614
0.253492 -2.0322 -0.016085
0.274894 -2.03508 -0.0148087
0.275059 -2.02754 -0.014904
0.257023 -2.01372 -0.0152805
0.261561 -2.01625 -0.0174416
0.274647 -2.01026 -0.0196655
0.244284 -2.00469 -0.0128517
0.256057 -2.00827 -0.0114396
0.266884 -2.00548 -0.0175639
0.227704 -1.99393 -0.0147699
0.233904 -1.99502 -0.0130867
0.244291 -1.99155 -0.0170627
0.253082 -1.99024 -0.0189842
0.261841 -1.99596 -0.0188283
0.23136 -1.98117 -0.0168503
0.255063 -1.98385 -0.0194925
0.228494 -1.97896 -0.0166202
0.236221 -1.9771 -0.0190542
0.246016 -1.976 -0.0173966
0.215865 -1.9666 -0.013632
0.227961 -1.96684 -0.0174785
0.199775 -1.9514 -0.0122781
0.2083 -1.95073 -0.0112471
0.212156 -1.95423 -0.0152081
0.236418 -1.95307 -0.0185342
0.206123 -1.94522 -0.0137754
0.195129 -1.93428 -0.0137116
0.204038 -1.93251 -0.0168323
0.223017 -1.93752 -0.0173483
0.197345 -1.92293 -0.0157202
0.203644 -1.92839 -0.0172513
0.215496 -1.9219 -0.0172546
0.176789 -1.91206 -0.0111105
0.186268 -1.91541 -0.0125349
0.195912 -1.91393 -0.0168651
0.185031 -1.90342 -0.0162321
0.1652 -1.89384 -0.0119005
0.172503 -1.89341 -0.0152221
0.183653 -1.89886 -0.0147977
0.154841 -1.88417 -0.0131893
0.165349 -1.8876 -0.0139643
0.17437 -1.88945 -0.0158322
0.143725 -1.8733 -0.011887
0.153951 -1.87316 -0.0100887
0.14426 -1.86292 -0.0109779
0.15692 -1.86008 -0.0149651
0.162988 -1.86472 -0.0136313
0.132591 -1.85003 -0.0109578
0.14344 -1.8524 -0.013828
0.157858 -1.85966 -0.0157076
0.161048 -1.84691 -0.0143772
0.119834 -1.83434 -0.0102523
0.123768 -1.83551 -0.0103254
0.140118 -1.83245 -0.0141456
0.127197 -1.82801 -0.0115558
0.13106 -1.82458 -0.0137472
0.147053 -1.82947 -0.0114384
0.125715 -1.81598 -0.0133418
0.146403 -1.81001 -0.0142032
0.107283 -1.80226 -0.0105644
0.117459 -1.80533 -0.0118457
0.104029 -1.79191 -0.0104462
0.115307 -1.79716 -0.0133812
0.107453 -1.78644 -0.0120476
0.100759 -1.77777 -0.0127067
0.0867448 -1.76034 -0.0120055
0.0919653 -1.76249 -0.0120184
0.0833632 -1.75444 -0.0113685
0.0936343 -1.75989 -0.0109122
0.0747305 -1.74501 -0.0110672
0.0741102 -1.73735 -0.0114032
0.0620993 -1.72143 -0.0107548
0.0465762 -1.71298 -0.0104284
0.0595443 -1.71891 -0.0106531
0.0620103 -1.71646 -0.0106917
0.0466586 -1.70852 -0.010301
-0.0384708 -1.63408 -0.0199465
-0.0471354 -1.62099 -0.0191904
-0.0577182 -1.61119 -0.0186124
-0.0623626 -1.59308 -0.0176077
-0.0712802 -1.5815 -0.016948
-0.0635503 -1.5869 -0.0194337
-0.0750282 -1.57906 -0.0189933
-0.0827524 -1.56149 -0.0190119
-0.077529 -1.56667 -0.0161264
-0.0919622 -1.55466 -0.0176823
-0.0886059 -1.55795 -0.0156247
-0.100543 -1.54325 -0.0170741
-0.0945819 -1.54603 -0.0170489
-0.105925 -1.53477 -0.0164954
-0.112763 -1.52493 -0.0158937
-0.114273 -1.51227 -0.0163903
-0.133574 -1.50344 -0.0126264
-0.125143 -1.50836 -0.0152471
-0.118449 -1.50525 -0.0161703
-0.134296 -1.49802 -0.0147121
-0.120197 -1.49328 -0.0163352
-0.149382 -1.48008 -0.0113818
-0.136016 -1.48403 -0.0150568
-0.12702 -1.48615 -0.017287
-0.146568 -1.4712 -0.0133461
-0.137096 -1.47649 -0.0145328
-0.151946 -1.46341 -0.0105115
-0.139169 -1.4643 -0.0175165
-0.16583 -1.45776 -0.0102095
-0.153627 -1.45926 -0.0127441
-0.141502 -1.45716 -0.0144609
-0.160584 -1.44715 -0.012138
-0.150317 -1.44752 -0.0139659
-0.14356 -1.44632 -0.017998
-0.171539 -1.43922 -0.0117497
-0.160136 -1.43941 -0.0135529
-0.152426 -1.4367 -0.0175297
-0.180975 -1.42972 -0.0112855
-0.163698 -1.42567 -0.0156243
-0.156054 -1.42277 -0.0154591
-0.185697 -1.41619 -0.0106195
-0.17565 -1.41808 -0.0124823
-0.167105 -1.41407 -0.0164351
-0.191854 -1.40378 -0.0100169
-0.183578 -1.40823 -0.0119948
-0.175853 -1.4051 -0.0160102
-0.190187 -1.39663 -0.0114227
-0.180309 -1.39365 -0.0140534
-0.179493 -1.39756 -0.019793
-0.193807 -1.38616 -0.0123066
-0.183092 -1.38554 -0.0178592
-0.203998 -1.37573 -0.013237
-0.193592 -1.3718 -0.0158089
-0.188848 -1.37823 -0.0161512
-0.215807 -1.36857 -0.0100731
-0.204926 -1.36388 -0.0154748
-0.213059 -1.35652 -0.0159645
-0.223409 -1.34664 -0.0191889
-0.218362 -1.34305 -0.014508
-0.208533 -1.34691 -0.0160968
-0.232286 -1.33498 -0.0142391
-0.227637 -1.33322 -0.0155816
-0.217939 -1.33685 -0.0142787
-0.23549 -1.32326 -0.0144884
-0.241172 -1.31593 -0.0104795
-0.231485 -1.31687 -0.0147742
-0.253496 -1.30045 -0.019306
-0.245871 -1.30641 -0.0175675
-0.234906 -1.30211 -0.0141068
-0.246871 -1.29414 -0.0146559
-0.262229 -1.28968 -0.0188732
-0.255141 -1.28441 -0.0142536
-0.276973 -1.27871 -0.0198522
-0.26339 -1.27454 -0.0150689
-0.24808 -1.27992 -0.0145272
-0.274714 -1.26116 -0.0177013
-0.266893 -1.26585 -0.0125982
-0.286487 -1.25258 -0.0199647
-0.275512 -1.25855 -0.0172362
-0.268473 -1.2523 -0.0106168
-0.30004 -1.24656 -0.0197766
-0.291807 -1.24387 -0.0152989
-0.282986 -1.25 -0.0172635
-0.276919 -1.24336 -0.0126922
-0.269603 -1.24986 -0.013274
-0.307165 -1.23017 -0.0191625
-0.295989 -1.23204 -0.0180386
-0.284858 -1.23351 -0.0135144
-0.30949 -1.22723 -0.0179066
-0.294915 -1.2255 -0.0142373
-0.315423 -1.21399 -0.017987
-0.304604 -1.21496 -0.0153711
-0.332833 -1.2042 -0.0197944
-0.323571 -1.20237 -0.0181523
-0.315887 -1.20685 -0.0162681
-0.30894 -1.20449 -0.0114951
-0.33534 -1.19376 -0.0187163
-0.32276 -1.19702 -0.0160104
-0.31305 -1.19316 -0.0119227
-0.341596 -1.18605 -0.0191793
-0.325957 -1.18479 -0.0135921
-0.35321 -1.17544 -0.0188939
-0.344046 -1.17451 -0.0185086
-0.334692 -1.17536 -0.0131989
-0.32816 -1.17437 -0.0121184
-0.357411 -1.16401 -0.0179139
-0.343844 -1.16132 -0.0139184
-0.33426 -1.16525 -0.0119232
-0.355902 -1.15521 -0.0172658
-0.34205 -1.15599 -0.0133552
-0.334473 -1.15491 -0.0197822
-0.365934 -1.14519 -0.0185639
-0.355408 -1.14927 -0.0162822
-0.347168 -1.1445 -0.0121283
-0.376151 -1.13398 -0.018127
-0.36299 -1.13908 -0.0153431
-0.357953 -1.13697 -0.0144412
-0.385884 -1.1263 -0.017239
-0.371788 -1.12666 -0.0189678
-0.365871 -1.12501 -0.0143435
-0.392312 -1.11392 -0.0167797
-0.383858 -1.11648 -0.0172748
-0.37448 -1.11576 -0.0154834
-0.367863 -1.11408 -0.0121903
-0.402421 -1.10247 -0.0164766
-0.392837 -1.10374 -0.018364
-0.384317 -1.10506 -0.0152345
-0.410489 -1.09022 -0.0160878
-0.394809 -1.09483 -0.0185462
-0.38708 -1.09582 -0.0131219
-0.403315 -1.0857 -0.0179899
-0.39482 -1.08745 -0.0138119
-0.422176 -1.07907 -0.0158608
-0.415633 -1.07396 -0.016547
-0.40614 -1.07623 -0.0150605
-0.39407 -1.07903 -0.0126919
-0.425161 -1.06515 -0.0165281
-0.415367 -1.06618 -0.0140367
-0.401513 -1.06825 -0.0123482
-0.39774 -1.06119 -0.0195051
-0.38751 -1.06963 -0.0196226
-0.44906 -1.05676 -0.0155344
-0.434624 -1.05177 -0.0173026
-0.425087 -1.05388 -0.0140727
-0.413333 -1.05636 -0.0136939
-0.402384 -1.05012 -0.0191033
-0.450679 -1.04219 -0.0148941
-0.434237 -1.0452 -0.0161666
-0.427561 -1.04893 -0.0101635
-0.416042 -1.04618 -0.01811
-0.473481 -1.03267 -0.0150928
-0.444426 -1.03653 -0.0163226
-0.436409 -1.03605 -0.0159042
-0.424604 -1.03951 -0.0127032
-0.455696 -1.0247 -0.0168515
-0.445215 -1.02078 -0.011598
-0.436042 -1.02627 -0.0156181
-0.428439 -1.02138 -0.0185244
-0.478643 -1.01863 -0.0145975
-0.465716 -1.01117 -0.016734
-0.453071 -1.01368 -0.0168055
-0.444175 -1.01639 -0.0158571
-0.483996 -1.00341 -0.0168627
-0.473762 -1.00272 -0.0137416
-0.462685 -1.0024 -0.0136641
-0.453303 -1.00853 -0.0128565
-0.491865 -0.990698 -0.0166029
-0.488326 -0.99041 -0.0136109
-0.472051 -0.992794 -0.0150247
-0.464577 -0.998159 -0.0152584
-0.450785 -0.99979 -0.0132119
-0.430594 -0.996714 -0.0174596
-0.482294 -0.98143 -0.0111642
-0.473017 -0.985628 -0.0156211
-0.463231 -0.986017 -0.0135398
-0.445741 -0.988729 -0.0175697
-0.508629 -0.978888 -0.0136883
-0.490847 -0.970915 -0.010885
-0.486275 -0.974144 -0.015347
-0.4764 -0.973754 -0.0156857
-0.468991 -0.978131 -0.012634
-0.456979 -0.979221 -0.0174999
-0.526852 -0.966328 -0.0136727
-0.501573 -0.964218 -0.0156574
-0.485267 -0.962318 -0.0155534
-0.475509 -0.965221 -0.0122589
-0.468075 -0.969574 -0.0174267
-0.505987 -0.950262 -0.0152152
-0.4943 -0.953965 -0.0144998
-0.487895 -0.957442 -0.0121138
-0.477131 -0.959163 -0.0172656
-0.468064 -0.958923 -0.019685
-0.513263 -0.948913 -0.0125402
-0.502715 -0.94363 -0.0137758
-0.495709 -0.94601 -0.013215
-0.480266 -0.946935 -0.0168487
-0.469715 -0.946913 -0.0192233
-0.531928 -0.93958 -0.0155738
-0.521139 -0.934797 -0.0121814
-0.517364 -0.939549 -0.0100904
-0.505971 -0.936294 -0.013448
-0.48319 -0.934824 -0.0164383
-0.478862 -0.937106 -0.0191087
-0.538774 -0.921371 -0.0121441
-0.520136 -0.923017 -0.0145505
-0.515153 -0.925333 -0.0113232
-0.508229 -0.924857 -0.0146577
-0.493775 -0.924206 -0.0163432
-0.484074 -0.925895 -0.018815
-0.549786 -0.911737 -0.0150177
-0.52532 -0.915826 -0.0111182
-0.515597 -0.914884 -0.0142699
-0.487185 -0.914095 -0.0184352
-0.546282 -0.906705 -0.011772
-0.533841 -0.904365 -0.0124705
-0.52586 -0.906872 -0.0152097
-0.514975 -0.905258 -0.0176375
-0.509243 -0.90604 -0.0164628
-0.561581 -0.892294 -0.0116468
-0.543441 -0.896298 -0.0142266
-0.536052 -0.895027 -0.0127821
-0.52666 -0.891405 -0.016106
-0.514314 -0.895301 -0.018591
-0.553683 -0.882649 -0.0122049
-0.547424 -0.88522 -0.0129349
-0.538476 -0.886339 -0.0118111
-0.529478 -0.886806 -0.0161478
-0.511083 -0.881972 -0.017963
-0.566307 -0.87541 -0.0107282
-0.547426 -0.875119 -0.0135678
-0.537622 -0.87534 -0.0172034
-0.527289 -0.872434 -0.0181455
-0.580823 -0.865432 -0.0126928
-0.554478 -0.863692 -0.0124692
-0.54541 -0.867332 -0.0147917
-0.53748 -0.861414 -0.0180773
-0.512492 -0.865789 -0.0198007
-0.581036 -0.853756 -0.013805
-0.571725 -0.853805 -0.0127519
-0.563136 -0.857205 -0.011207
-0.557536 -0.855264 -0.015611
-0.544113 -0.857249 -0.0194162
-0.53843 -0.853416 -0.0150625
-0.598292 -0.846405 -0.0109629
-0.573852 -0.847718 -0.0122404
-0.566906 -0.843066 -0.0155425
-0.554058 -0.847918 -0.0193001
-0.543594 -0.849476 -0.0178438
-0.6108 -0.830569 -0.010742
-0.583536 -0.837032 -0.013285
-0.577857 -0.834236 -0.0128844
-0.562452 -0.837023 -0.0191299
-0.55097 -0.837372 -0.0188389
-0.602425 -0.823651 -0.0133986
-0.590784 -0.823076 -0.0117608
-0.584981 -0.827203 -0.0121793
-0.570472 -0.827682 -0.0170157
-0.554196 -0.82492 -0.0184944
-0.619007 -0.814166 -0.0103881
-0.596411 -0.814307 -0.0124378
-0.581998 -0.819587 -0.0169556
-0.578426 -0.817306 -0.0150941
-0.568075 -0.81427 -0.0185933
-0.610816 -0.807961 -0.0131207
-0.607092 -0.807164 -0.0124603
-0.584867 -0.802588 -0.018566
-0.576427 -0.802731 -0.0171599
-0.632926 -0.797483 -0.0102068
-0.622944 -0.792171 -0.0129586
-0.613569 -0.794716 -0.0116603
-0.607474 -0.79636 -0.0113001
-0.594679 -0.793643 -0.016901
-0.648751 -0.780721 -0.0100818
-0.620144 -0.781578 -0.0113989
-0.604447 -0.784573 -0.0163749
-0.593453 -0.789921 -0.0174784
-0.638836 -0.775902 -0.0129142
-0.629577 -0.778564 -0.0127148
-0.613139 -0.773944 -0.0162322
-0.60692 -0.777541 -0.0147029
-0.595046 -0.778175 -0.0182856
-0.639662 -0.763375 -0.0125322
-0.625327 -0.766642 -0.0145088
-0.61537 -0.763626 -0.0145357
-0.605253 -0.767944 -0.0194349
-0.597459 -0.763399 -0.0167532
-0.646459 -0.759603 -0.012623
-0.634219 -0.755902 -0.0124784
-0.611524 -0.752908 -0.0180327
-0.657863 -0.742896 -0.0124465
-0.645042 -0.746067 -0.0123209
-0.633576 -0.74499 -0.0162181
-0.62406 -0.748277 -0.0178173
-0.618304 -0.742556 -0.0190543
-0.655041 -0.732586 -0.011358
-0.648502 -0.73135 -0.0136404
-0.639668 -0.735404 -0.0144616
-0.626674 -0.737513 -0.0169583
-0.689021 -0.724498 -0.0128392
-0.659741 -0.721647 -0.0119858
-0.644025 -0.723923 -0.015927
-0.633006 -0.723742 -0.016763
-0.625556 -0.729703 -0.0188978
-0.670621 -0.710534 -0.0102797
-0.666562 -0.716519 -0.0118994
-0.651897 -0.718683 -0.0175552
-0.634599 -0.716959 -0.0188191
-0.683921 -0.70799 -0.0121802
-0.66395 -0.707906 -0.0150847
-0.645306 -0.706994 -0.0177936
-0.683398 -0.699757 -0.0110791
-0.67051 -0.69031 -0.0141556
-0.66833 -0.696104 -0.0152
-0.655615 -0.693134 -0.0177472
-0.700555 -0.689499 -0.012142
-0.696557 -0.68291 -0.0118395
-0.681664 -0.686272 -0.0130658
-0.674915 -0.685926 -0.0171897
-0.665443 -0.683976 -0.0183311
-0.714836 -0.670714 -0.0120384
-0.684619 -0.673982 -0.0149576
-0.679673 -0.674654 -0.0140185
-0.664654 -0.675538 -0.0191577
-0.72109 -0.664436 -0.0120782
-0.700794 -0.664891 -0.0128725
-0.688371 -0.662959 -0.0180313
-0.676076 -0.66549 -0.0181457
-0.742804 -0.650073 -0.0123117
-0.705251 -0.65404 -0.0135202
-0.689102 -0.653511 -0.018207
-0.719589 -0.648132 -0.0115664
-0.705215 -0.641962 -0.0139768
-0.695057 -0.649082 -0.0189827
-0.689501 -0.644312 -0.0180339
-0.756453 -0.630211 -0.0121809
-0.731603 -0.630203 -0.0114523
-0.71226 -0.639143 -0.0124823
-0.695437 -0.634849 -0.017715
-0.723581 -0.62468 -0.0141319
-0.716032 -0.625893 -0.0159351
-0.706655 -0.627023 -0.0164736
-0.752044 -0.612732 -0.0115717
-0.749308 -0.610894 -0.0114858
-0.731968 -0.617433 -0.0123285
-0.723648 -0.616188 -0.0195662
-0.716522 -0.618955 -0.0176903
-0.707337 -0.619895 -0.0164965
-0.739768 -0.605526 -0.0122032
-0.728204 -0.60597 -0.0166363
-0.718549 -0.603992 -0.0170995
-0.770951 -0.591329 -0.011588
-0.762792 -0.591623 -0.0113987
-0.743817 -0.591711 -0.0119836
-0.735641 -0.590376 -0.0165159
-0.729323 -0.593503 -0.0161957
-0.741067 -0.582646 -0.0177273
-0.732758 -0.587963 -0.0176552
-0.775951 -0.572136 -0.0113084
-0.752717 -0.574509 -0.0152556
-0.797482 -0.567933 -0.0117924
-0.764226 -0.569271 -0.0118642
-0.757516 -0.560893 -0.0176259
-0.747045 -0.568668 -0.0178881
-0.798521 -0.550265 -0.0114652
-0.774274 -0.552016 -0.014018
-0.766834 -0.552239 -0.0148665
-0.754995 -0.556946 -0.0187564
-0.819598 -0.544708 -0.011884
-0.783444 -0.543771 -0.016222
-0.778343 -0.544191 -0.011608
-0.76864 -0.549963 -0.0191951
-0.805159 -0.530949 -0.0111991
-0.785204 -0.531297 -0.0114765
-0.776357 -0.536281 -0.0179754
-0.767155 -0.534513 -0.0189116
-0.821856 -0.524818 -0.0114629
-0.806853 -0.529262 -0.0145589
-0.789583 -0.522176 -0.0191872
-0.778714 -0.526326 -0.0174116
-0.795061 -0.517258 -0.0137538
-0.784795 -0.515005 -0.0178135
-0.837319 -0.501569 -0.0113778
-0.828995 -0.507714 -0.0113852
-0.805181 -0.507492 -0.0136793
-0.795733 -0.505057 -0.0189825
-0.815361 -0.493771 -0.0150176
-0.80478 -0.494266 -0.0140271
-0.833917 -0.484917 -0.0109503
-0.81511 -0.486095 -0.0193072
-0.791827 -0.487666 -0.0186289
-0.740068 -0.480221 -0.018077
-0.824318 -0.471564 -0.0121578
-0.801817 -0.477945 -0.0165621
-0.79286 -0.47307 -0.0182524
-0.757565 -0.470233 -0.0117385
-0.741797 -0.474207 -0.0144639
0.442902 -2.29062 -0.00794625
0.47608 -2.28792 -0.00798021
0.423937 -2.26829 -0.00330875
0.39804 -2.22575 -0.00766774
0.379705 -2.20505 -0.00315783
0.35348 -2.15227 -0.00736041
0.336505 -2.13315 -0.00299204
0.300114 -2.09823 -0.0028989
0.314479 -2.09773 -0.00712461
0.274961 -2.02649 -0.00836288
0.249542 -1.99912 -0.00996667
0.256706 -1.9991 -0.00268358
0.225817 -1.9807 -0.00262491
0.241122 -1.98663 -0.00665214
0.240185 -1.97022 -0.00952743
0.222408 -1.95631 -0.00957186
0.197732 -1.94971 -0.00898054
0.214906 -1.94767 -0.00962823
0.192039 -1.93171 -0.00574577
0.208613 -1.93465 -0.00785596
0.161177 -1.9024 -0.00986549
0.182287 -1.90205 -0.00925791
0.19112 -1.90957 -0.00953728
0.173944 -1.8995 -0.00817025
0.150913 -1.88013 -0.00889495
0.16459 -1.88575 -0.00882654
0.175633 -1.88494 -0.00622184
0.136746 -1.87099 -0.00832455
0.161937 -1.87161 -0.00966278
0.140082 -1.86275 -0.00952519
0.154963 -1.86281 -0.00493725
0.123465 -1.85984 -0.00769791
0.14656 -1.85328 -0.00607658
0.153597 -1.85381 -0.00884532
0.127842 -1.84418 -0.00795295
0.133867 -1.84073 -0.00884302
0.140881 -1.84019 -0.00771481
0.116732 -1.83166 -0.00657744
0.140791 -1.83657 -0.0089565
0.102508 -1.82392 -0.006056
0.11706 -1.82792 -0.00775139
0.107714 -1.81208 -0.00833378
0.118844 -1.81221 -0.0071635
0.12612 -1.81622 -0.005359
0.0932642 -1.8049 -0.0052186
0.105639 -1.80444 -0.00897
0.0960127 -1.79435 -0.00739809
0.10833 -1.79548 -0.00746326
0.0859053 -1.78218 -0.0042819
0.0945064 -1.78501 -0.00890817
0.0535686 -1.77852 -0.00359291
0.0743059 -1.77053 -0.00366636
0.0864969 -1.77654 -0.00771142
0.0961627 -1.77087 -0.00818634
0.0792077 -1.76235 -0.00826079
0.0831942 -1.76303 -0.0079036
0.0906486 -1.76266 -0.00569632
0.0755639 -1.75517 -0.00516469
0.0847042 -1.75074 -0.00820745
0.100006 -1.75853 -0.00211895
0.0334772 -1.74863 -0.00218089
0.0664708 -1.74323 -0.00644229
0.0726973 -1.74414 -0.00912961
0.0236222 -1.73453 -0.00150821
0.0553096 -1.7361 -0.00540865
0.0647024 -1.73316 -0.00875317
0.0715234 -1.73173 -0.00793008
0.0112112 -1.72561 -0.000975972
0.0372049 -1.72502 -0.00744508
0.0427461 -1.72575 -0.00464006
0.057043 -1.72455 -0.00571355
0.0613824 -1.72706 -0.00798975
0.0493044 -1.71708 -0.00480085
0.0568849 -1.71607 -0.00887505
0.0608384 -1.71909 -0.00961149
0.0328654 -1.70251 -0.00512976
0.0468224 -1.70482 -0.00799377
0.00619924 -1.69618 -0.0018747
0.0242135 -1.69404 -0.00430647
0.034014 -1.6954 -0.00734101
0.0445122 -1.69706 -0.00801543
0.0118589 -1.68509 -0.0060518
0.0249652 -1.68366 -0.00687814
0.0370618 -1.68434 -0.00812036
0.00716685 -1.67863 -0.00419286
0.0146467 -1.67467 -0.00609868
0.0228293 -1.67541 -0.00568451
0.00499919 -1.6633 -0.00184232
0.0164738 -1.6669 -0.00744715
0.0225435 -1.66688 -0.0081856
-0.0109486 -1.65968 -0.00256882
-0.00267924 -1.65281 -0.0031661
0.00619463 -1.65699 -0.00636235
0.0141684 -1.65635 -0.00764107
-0.0332247 -1.64002 -0.00159083
-0.022108 -1.64996 -0.00208305
-0.00543421 -1.6456 -0.00634182
0.00262245 -1.6465 -0.00753675
-0.0126736 -1.63423 -0.00588791
-0.00596715 -1.6348 -0.00686755
0.000684659 -1.63904 -0.00182089
0.0163929 -1.63456 -0.00516498
-0.0249638 -1.62373 -0.00449222
-0.0137829 -1.62763 -0.0055765
-0.00500545 -1.62516 -0.00520047
-0.0338257 -1.61053 -0.000615289
-0.0236569 -1.61793 -0.00545312
-0.014621 -1.61293 -0.0071465
-0.0037957 -1.61607 -0.00708443
0.00310881 -1.61408 -0.00717092
-0.0327127 -1.60538 -0.00430491
-0.0232115 -1.60399 -0.00435231
-0.0182445 -1.60558 -0.00689336
-0.0332925 -1.59392 -0.00604504
-0.0266766 -1.59427 -0.00601093
-0.0636524 -1.58154 -0.00386523
-0.0539827 -1.58375 -0.00529543
-0.041133 -1.58461 -0.0028165
-0.0385158 -1.58368 -0.00516575
-0.0545258 -1.57601 -0.00552925
-0.0427733 -1.57454 -0.00402831
-0.0379823 -1.57495 -0.00608533
-0.0646175 -1.56406 -0.00359795
-0.0572846 -1.56471 -0.00384629
-0.045066 -1.56472 -0.00416259
-0.0334271 -1.56971 -0.00583377
-0.0670772 -1.55404 -0.00357749
-0.0581951 -1.55548 -0.00617192
-0.0456885 -1.55944 -0.00544187
-0.080102 -1.54313 -0.000338826
-0.0744779 -1.5447 -0.00336388
-0.0653027 -1.54144 -0.00425352
-0.0578985 -1.54897 -0.00504547
-0.0906945 -1.53116 -0.00162695
-0.0837605 -1.53413 -0.00404922
-0.0757776 -1.53356 -0.00455302
-0.0914288 -1.52418 -0.00305352
-0.084891 -1.52348 -0.00219572
-0.0759818 -1.52243 -0.00418378
-0.10449 -1.51179 -0.00320434
-0.0927566 -1.5109 -0.0050946
-0.0849644 -1.51428 -0.00373544
-0.0746395 -1.51552 -0.00555451
-0.115876 -1.50002 -0.00100523
-0.103904 -1.5036 -0.00193796
-0.0959075 -1.50059 -0.00637425
-0.0868582 -1.50496 -0.00341584
-0.107281 -1.49124 -0.0020251
-0.0990267 -1.49741 -0.00410287
-0.0837902 -1.49682 -0.00322087
-0.116645 -1.48183 -0.00193022
-0.109134 -1.48838 -0.00484136
-0.0950723 -1.48754 -0.00337602
-0.131787 -1.47485 -8.4579e-05
-0.122618 -1.47773 -0.00278661
-0.11578 -1.47628 -0.00231568
-0.105418 -1.47386 -0.0032865
-0.132927 -1.46516 -0.000488902
-0.126951 -1.46501 -0.00233548
-0.116039 -1.46485 -0.00434838
-0.143426 -1.45261 -0.00238938
-0.136789 -1.45156 -0.00139532
-0.122719 -1.45773 -0.0014302
-0.110743 -1.45039 -0.00194932
-0.169332 -1.44244 -0.00941704
-0.155386 -1.44941 -0.00140215
-0.141524 -1.44851 -0.00117563
-0.136527 -1.444 -0.00327817
-0.126281 -1.44322 -0.00367938
-0.1531 -1.43623 -0.00133197
-0.143967 -1.43511 -0.001995
-0.120767 -1.43919 -0.00155609
-0.190661 -1.42485 -0.00851463
-0.175604 -1.42971 -0.00876291
-0.152829 -1.42343 -0.00220093
-0.144569 -1.42823 -0.00507249
-0.139987 -1.4234 -0.0013146
-0.196499 -1.41202 -0.00786382
-0.166532 -1.41625 -0.000989935
-0.158324 -1.41658 -0.000911131
-0.149979 -1.41912 -0.000713931
-0.206826 -1.40284 -0.00740549
-0.197759 -1.40131 -1.26772e-05
-0.170931 -1.40886 -0.0010834
-0.165517 -1.40359 -0.00167323
-0.15788 -1.4033 -0.00126349
-0.147217 -1.40885 -0.00113463
-0.199282 -1.39265 -0.00948229
-0.184837 -1.39834 -0.000427458
-0.173377 -1.39552 -0.000152511
-0.161488 -1.39662 -0.00545555
-0.15786 -1.39588 -0.00412833
-0.212264 -1.38988 -0.00675647
-0.209437 -1.38419 -0.00908841
-0.195485 -1.38441 -0.000969066
-0.184577 -1.38281 -0.003659
-0.177719 -1.38567 -0.00309596
-0.167388 -1.38032 -0.000345679
-0.232219 -1.37082 -0.00582589
-0.217839 -1.37541 -0.00735966
-0.183795 -1.37617 -0.000138951
-0.173605 -1.37097 -0.00119199
-0.22953 -1.36661 -0.00828067
-0.19292 -1.36168 -0.00517719
-0.175039 -1.36849 -0.0047656
-0.254743 -1.35368 -0.00501223
-0.235086 -1.35515 -0.00639956
-0.221561 -1.35677 -0.00950718
-0.204523 -1.35256 -0.000570267
-0.193816 -1.35485 -0.0022692
-0.24442 -1.34472 -0.00727119
-0.225632 -1.34359 -0.00887419
-0.211725 -1.3434 -0.00322116
-0.208404 -1.34137 -0.00530807
-0.251155 -1.33444 -0.00406346
-0.249263 -1.33177 -0.00666967
-0.23404 -1.33429 -0.00844329
-0.218374 -1.33779 -0.000336935
-0.18718 -1.33511 -0.00388394
-0.263698 -1.32668 -0.00370928
-0.257114 -1.32114 -0.00619229
-0.246847 -1.32878 -0.00821074
-0.220037 -1.32416 -0.00458652
-0.203262 -1.32099 -0.00284285
-0.267066 -1.31245 -0.00442248
-0.254933 -1.31928 -0.0077782
-0.230391 -1.31911 -6.933e-05
-0.221296 -1.31431 -0.00513897
-0.20249 -1.31433 -0.00379352
-0.276809 -1.30281 -0.00258528
-0.259777 -1.30714 -0.00721484
-0.242269 -1.3003 -0.00975357
-0.238642 -1.30905 -0.00282808
-0.283426 -1.29112 -0.00346331
-0.272163 -1.2998 -0.0052449
-0.264504 -1.29485 -0.00664835
-0.250326 -1.29159 -0.00937803
-0.235257 -1.29711 -0.00269021
-0.218357 -1.29689 -0.00251385
-0.292221 -1.28082 -0.00300968
-0.278443 -1.28996 -0.00646534
-0.261351 -1.2853 -0.00912941
-0.250707 -1.28507 -0.00492614
-0.248074 -1.28591 -0.00342553
-0.234387 -1.28802 -0.00366275
-0.3047 -1.27176 -0.00118338
-0.282841 -1.2775 -0.00589801
-0.264741 -1.2723 -0.00854541
-0.253335 -1.27615 -0.000954716
-0.316685 -1.26262 -0.000789922
-0.295506 -1.26766 -0.00385443
-0.278448 -1.26849 -0.00842979
-0.261639 -1.26871 -0.00239681
-0.248448 -1.26872 -0.00357895
-0.229043 -1.2676 -0.00487545
-0.302252 -1.25663 -0.00338077
-0.299014 -1.25851 -0.0050792
-0.286132 -1.25915 -0.00803965
-0.273182 -1.25021 -0.00219559
-0.26195 -1.25342 -0.00412499
-0.255955 -1.25724 -0.00404949
-0.315593 -1.24499 -0.00246856
-0.30782 -1.24925 -0.00469094
-0.288958 -1.24599 -0.00745952
-0.267373 -1.24396 -0.00240837
-0.322541 -1.23765 -0.00261605
-0.298636 -1.23511 -0.00851914
-0.284262 -1.23161 -0.00199511
-0.276221 -1.23354 -0.00342344
-0.327241 -1.22502 -0.00207439
-0.315082 -1.22245 -0.00502286
-0.304411 -1.2246 -0.00808571
-0.282338 -1.22866 -0.0037913
-0.275035 -1.2258 -0.00271096
-0.340609 -1.21696 -0.00178336
-0.324362 -1.21392 -0.0046896
-0.284897 -1.21405 -0.00448172
-0.346689 -1.20515 -0.00129409
-0.338208 -1.20896 -0.00300805
-0.318507 -1.20253 -0.00871488
-0.308152 -1.20923 -0.00893961
-0.292694 -1.20689 -0.0026874
-0.285234 -1.20025 -0.00329872
-0.354403 -1.19413 -0.00085157
-0.337614 -1.19415 -0.00234569
-0.32569 -1.19606 -0.00696395
-0.305549 -1.19604 -0.00161131
-0.294325 -1.19974 -0.0025831
-0.344682 -1.18325 -0.00345004
-0.33334 -1.1869 -0.00661609
-0.318583 -1.18477 -0.00243694
-0.302435 -1.18118 -0.00208335
-0.299453 -1.18805 -0.00323883
-0.362177 -1.17882 -0.00180034
-0.351168 -1.17773 -0.000121266
-0.348548 -1.17088 -0.00449295
-0.333735 -1.17463 -0.00441051
-0.324678 -1.17651 -0.00420449
-0.312813 -1.17377 -0.00317301
-0.306783 -1.17397 -0.00422588
-0.366304 -1.16675 -0.00129582
-0.349622 -1.16665 -0.00739539
-0.328592 -1.16427 -0.00324409
-0.316124 -1.16177 -0.000695852
-0.370246 -1.15463 -0.00079372
-0.353806 -1.15765 -0.00550637
-0.343286 -1.15806 -0.00542552
-0.325066 -1.15758 -0.00310212
-0.375862 -1.14322 -0.000335814
-0.365579 -1.14342 -0.00642342
-0.355559 -1.14819 -0.00649182
-0.335929 -1.14001 -0.00306424
-0.328776 -1.14234 -0.00233002
-0.386741 -1.13426 -1.8185e-05
-0.374486 -1.13176 -0.00594317
-0.358812 -1.13068 -0.00596284
-0.344944 -1.13254 -0.0024276
-0.335637 -1.13733 -0.00301966
-0.374882 -1.12346 -0.00716513
-0.347376 -1.12689 -0.00294742
-0.339401 -1.12335 -0.000607115
-0.394268 -1.11313 -0.00238549
-0.377204 -1.11748 -0.00289906
-0.352954 -1.11186 -0.00225892
-0.346559 -1.11896 -0.00294308
-0.394714 -1.10173 -0.00486613
-0.385237 -1.10863 -0.00664368
-0.3798 -1.10606 -0.00967994
-0.365324 -1.10093 -0.00213414
-0.354573 -1.10451 -0.00207637
-0.406656 -1.09197 -0.00161619
-0.394646 -1.097 -0.0048832
-0.384119 -1.09396 -0.009229
-0.405172 -1.08447 -0.00399805
-0.394589 -1.08789 -0.00560765
-0.383465 -1.08197 -0.00276956
-0.37612 -1.08441 -0.00177903
-0.366191 -1.08745 -0.00272555
-0.42022 -1.07132 -0.000893503
-0.414123 -1.0755 -0.00647457
-0.404704 -1.07839 -0.00491936
-0.385639 -1.07385 -0.00353958
-0.414589 -1.06709 -0.00386915
-0.404757 -1.06531 -0.00351309
-0.386592 -1.06405 -0.00144927
-0.423337 -1.05812 -0.00359763
-0.41615 -1.05799 -0.0048908
-0.395 -1.05348 -0.00287453
-0.389584 -1.05577 -0.0026727
-0.430227 -1.0448 -0.00450974
-0.427714 -1.04863 -0.00394183
-0.419316 -1.04897 -0.00593301
-0.404059 -1.0422 -0.00241814
-0.434059 -1.03548 -0.00754937
-0.429556 -1.03472 -0.00275055
-0.40463 -1.033 -0.00184455
-0.443797 -1.02515 -0.00733362
-0.434877 -1.02487 -0.00470487
-0.420637 -1.02031 -0.000353694
-0.413057 -1.02684 -0.00232411
-0.457047 -1.01239 -0.00581193
-0.447035 -1.01715 -0.00607142
-0.421837 -1.01553 -0.00249417
-0.409232 -1.01883 -0.00320097
-0.456903 -1.00492 -0.00509815
-0.425237 -1.00429 -0.00113356
-0.419575 -1.00697 -0.00311768
-0.471719 -0.999482 -0.00182965
-0.461412 -0.997249 -0.00738689
-0.432089 -0.99676 -0.00186437
-0.427659 -0.991536 -0.00301984
-0.480537 -0.980748 -0.00991235
-0.47371 -0.984431 -0.00425842
-0.465222 -0.987167 -0.00741807
-0.441383 -0.984419 -0.00175837
-0.439292 -0.984505 -0.0018647
-0.425816 -0.989341 -0.0024001
-0.487507 -0.978696 -0.00122406
-0.477371 -0.972853 -0.00573615
-0.467588 -0.973089 -0.00161498
-0.449341 -0.972345 -0.00155688
-0.491384 -0.966829 -0.000833128
-0.484005 -0.964995 -0.00642709
-0.444406 -0.961922 -0.00193995
-0.501172 -0.955043 -0.00187223
-0.493576 -0.958314 -0.00927063
-0.487503 -0.954725 -0.00611725
-0.47175 -0.953322 -0.0021028
-0.456629 -0.954419 -0.00173539
-0.517772 -0.948739 -0.00045795
-0.505925 -0.941614 -0.0028038
-0.498251 -0.94581 -0.00691053
-0.483899 -0.944125 -0.00141387
-0.467114 -0.941842 -0.00118014
-0.513892 -0.931171 -0.00251951
-0.505979 -0.935734 -0.00664278
-0.490545 -0.931507 -0.00127962
-0.4808 -0.937876 -0.00215395
-0.479048 -0.939364 -0.00136165
-0.517396 -0.926095 -0.00753714
-0.504226 -0.922646 -0.0032945
-0.488831 -0.923837 -0.00158971
-0.52518 -0.914403 -0.00793277
-0.517118 -0.917276 -0.0029966
-0.50245 -0.918073 -0.0020586
-0.535788 -0.906107 -0.0064693
-0.528309 -0.905071 -0.00522568
-0.504453 -0.9026 -0.0017247
-0.4994 -0.90886 -8.70684e-05
-0.489112 -0.905591 -0.00111164
-0.53564 -0.894673 -0.0045589
-0.512084 -0.891122 -0.000955879
-0.508005 -0.897483 -0.00102046
-0.545743 -0.882367 -0.00640104
-0.536762 -0.885348 -0.00425213
-0.523271 -0.884973 -0.00105387
-0.515095 -0.888748 -0.00212433
-0.555582 -0.873882 -0.0041066
-0.546618 -0.876124 -0.00466016
-0.536048 -0.877391 -0.000802424
-0.526195 -0.87667 -0.0018872
-0.562746 -0.864145 -0.00283744
-0.553952 -0.868951 -0.00758768
-0.54931 -0.860603 -0.00180263
-0.536668 -0.867078 -0.00184103
-0.528114 -0.864164 -0.00214652
-0.571564 -0.850807 -0.00476414
-0.566374 -0.854992 -0.00417828
-0.556899 -0.855794 -0.00504633
-0.540126 -0.857503 -0.00208768
-0.537666 -0.857953 -0.00066941
-0.575021 -0.844476 -0.00487169
-0.559979 -0.845381 -0.00631689
-0.544448 -0.841375 -0.00199346
-0.591917 -0.830309 -0.00436066
-0.583902 -0.833002 -0.00552816
-0.576862 -0.836644 -0.00602309
-0.554385 -0.83452 -0.00120474
-0.545086 -0.831509 -0.00170935
-0.591548 -0.824372 -0.00900515
-0.586786 -0.825257 -0.00661584
-0.553611 -0.820112 -0.00165958
-0.595309 -0.815397 -0.00540516
-0.572524 -0.814589 -0.0010451
-0.563981 -0.817401 -0.00173558
-0.555826 -0.818283 -0.000359216
-0.612778 -0.804304 -0.00866231
-0.604758 -0.805599 -0.0043764
-0.574395 -0.80099 -0.000881599
-0.614779 -0.796219 -0.00453863
-0.608795 -0.795856 -0.00101263
-0.584457 -0.791055 -0.000104167
-0.574664 -0.794766 -0.00168664
-0.628389 -0.78029 -0.00815643
-0.615749 -0.784768 -0.00540845
-0.609988 -0.787582 -0.00636614
-0.581521 -0.786631 -0.00156731
-0.640387 -0.770388 -0.00802274
-0.63095 -0.772383 -0.00307227
-0.62564 -0.775114 -0.00534488
-0.591305 -0.773892 -0.00154317
-0.583892 -0.772447 -0.00145843
-0.662166 -0.763201 -0.00987829
-0.641018 -0.762344 -0.00483856
-0.634343 -0.763599 -0.00441227
-0.629947 -0.763706 -0.00933704
-0.595189 -0.762134 -0.00144004
-0.657076 -0.75105 -0.00278095
-0.640542 -0.753252 -0.00918701
-0.636132 -0.755898 -0.00449072
-0.603965 -0.752459 -0.00138299
-0.667418 -0.745687 -0.00944376
-0.652766 -0.743557 -0.00908258
-0.647164 -0.744642 -0.004307
-0.637698 -0.746916 -0.00435537
-0.614112 -0.743976 -0.00132903
-0.657124 -0.734607 -0.00481106
-0.625174 -0.733943 -0.00126466
-0.690371 -0.727011 -0.00950073
-0.668414 -0.72446 -0.00472008
-0.65858 -0.726508 -0.00539189
-0.629489 -0.720381 -0.00118411
-0.616133 -0.729572 -0.00127099
-0.684181 -0.712194 -0.0051828
-0.670675 -0.713311 -0.00385327
-0.665834 -0.715669 -0.00573575
-0.619941 -0.714645 -0.00121537
-0.701039 -0.708427 -0.00921374
-0.690165 -0.700753 -0.001776
-0.683937 -0.702411 -0.00373334
-0.673774 -0.705845 -0.00751866
-0.652661 -0.706145 -0.00106322
-0.64251 -0.700145 -0.00113683
-0.634296 -0.708802 -0.00114492
-0.707406 -0.690118 -0.00882368
-0.686092 -0.695514 -0.00741285
-0.679388 -0.695432 -0.00466259
-0.662658 -0.697366 -0.000997038
-0.651416 -0.690619 -0.00109292
-0.690588 -0.686596 -0.00138649
-0.68704 -0.68504 -0.00599547
-0.667871 -0.684664 -0.000919313
-0.70133 -0.672671 -0.00365592
-0.696699 -0.674296 -0.00575552
-0.687022 -0.679243 -0.00786756
-0.65581 -0.676851 -0.00104047
-0.733413 -0.669167 -0.00893401
-0.704898 -0.661869 -0.00448373
-0.696562 -0.667608 -0.00770708
-0.683907 -0.664124 -0.000778801
-0.679021 -0.662346 -0.000961071
-0.665552 -0.666976 -0.000912398
-0.713843 -0.654624 -0.00524766
-0.7072 -0.658583 -0.00497149
-0.688516 -0.65125 -0.000701336
-0.741152 -0.649692 -0.00857176
-0.725546 -0.648883 -0.00245066
-0.716391 -0.646884 -0.00753458
-0.700965 -0.644288 -0.000640038
-0.694119 -0.640765 -0.000868193
-0.682736 -0.648498 -0.000909234
-0.731984 -0.6343 -0.000535156
-0.72304 -0.634745 -0.00613728
-0.716855 -0.636732 -0.00245817
-0.705214 -0.63126 -0.00056246
-0.758569 -0.628552 -0.00845044
-0.735186 -0.62146 -0.00370682
-0.720713 -0.629799 -0.00711994
-0.714562 -0.620313 -0.0048301
-0.695834 -0.625621 -0.000814556
-0.735512 -0.611314 -0.00550041
-0.72144 -0.610619 -0.000421036
-0.710912 -0.619341 -0.000487952
-0.771589 -0.607727 -0.00822908
-0.750605 -0.606456 -6.57095e-05
-0.745558 -0.606142 -0.00606717
-0.714738 -0.607037 -0.000726905
-0.753462 -0.595827 -0.00456919
-0.748275 -0.594509 -0.00302471
-0.728414 -0.599698 -0.000349354
-0.715659 -0.592 -0.000674664
-0.784357 -0.586475 -0.00799792
-0.763107 -0.582839 -0.00378523
-0.755138 -0.583649 -0.00665772
-0.733291 -0.587792 -0.000456628
-0.772892 -0.57071 -0.00161546
-0.766593 -0.575894 -0.00863601
-0.735165 -0.573633 -0.00039148
-0.802662 -0.563485 -0.00788838
-0.772909 -0.566715 -0.00527334
-0.769541 -0.567544 -0.00638429
-0.745459 -0.564523 -0.000336366
-0.784723 -0.555907 -0.00448568
-0.778724 -0.555587 -0.002862
-0.751216 -0.552891 -0.000275749
-0.793389 -0.542098 -0.00264842
-0.782806 -0.544886 -0.00716061
-0.759502 -0.54301 -0.000451393
-0.838111 -0.53638 -0.00817475
-0.816862 -0.531764 -0.00440041
-0.799962 -0.539229 -0.00840204
-0.774846 -0.536692 -0.000410011
-0.802198 -0.52691 -0.00434867
-0.834025 -0.516626 -0.00754147
-0.812738 -0.513107 -0.00420928
-0.80807 -0.514167 -0.00387897
-0.770989 -0.51926 -0.000355844
-0.823266 -0.501732 -0.0048003
-0.780775 -0.509804 -0.00031103
-0.849189 -0.492659 -0.00735831
-0.82319 -0.498162 -0.00491841
-0.818279 -0.496864 -0.000563649
-0.833087 -0.484158 -0.00193232
-0.824174 -0.482229 -0.00768672
-0.771037 -0.489807 -0.0002558
-0.821211 -0.478746 -0.00622694
-0.781771 -0.475296 -0.00912431
-0.846774 -0.469331 -0.0015861
0.442341 -2.2701 0.00618423
0.468996 -2.27732 0.00605283
0.450705 -2.2676 0.00547658
0.46595 -2.25053 0.0074857
0.41673 -2.24642 0.00716417
0.420613 -2.24104 0.00675379
0.40479 -2.23491 0.00689857
0.418376 -2.23263 0.00650438
0.425871 -2.23455 0.00654536
0.438292 -2.23711 0.00690879
0.441163 -2.2347 0.00684886
0.416318 -2.22104 0.00805149
0.397208 -2.21156 0.00784375
0.384957 -2.20503 0.00755686
0.395672 -2.20338 0.00701036
0.377872 -2.19234 0.00836875
0.3938 -2.19556 0.00783728
0.366213 -2.18001 0.00875752
0.366384 -2.16381 0.00772587
0.373587 -2.16763 0.00762375
0.348293 -2.15984 0.00936746
0.360222 -2.15891 0.00901736
0.353379 -2.14596 0.00799292
0.366823 -2.14798 0.00885239
0.344726 -2.13615 0.00893236
0.350956 -2.13001 0.00816073
0.307547 -2.12884 0.0090102
0.327519 -2.12609 0.00870802
0.343759 -2.10895 0.00925817
0.330079 -2.09029 0.00863361
0.333689 -2.08977 0.0086804
0.290458 -2.05008 0.00934471
0.278328 -2.02967 0.00992112
0.272288 -2.01546 0.00977725
0.0106047 -1.69555 0.000105502
-0.00135359 -1.68638 0.000638753
-0.0141738 -1.67877 0.00113138
-0.0205315 -1.66079 0.00188191
-0.0416892 -1.64002 0.00298728
-0.0303003 -1.64179 0.000511263
-0.0283443 -1.64637 0.00253069
-0.0159423 -1.6455 0.00016412
-0.0406211 -1.63092 0.00103481
-0.0518029 -1.62162 0.00151961
-0.0459023 -1.62028 0.00376336
-0.0576191 -1.61212 0.00425662
-0.0622585 -1.594 0.00498235
-0.051903 -1.59544 0.00239683
-0.0395098 -1.59169 8.72221e-05
-0.0760023 -1.5888 0.0054052
-0.0638634 -1.58398 0.001834
-0.0505904 -1.58334 0.000527086
-0.0681203 -1.57007 0.0034973
-0.0786647 -1.56914 0.00615149
-0.0689387 -1.5612 0.00152736
-0.101995 -1.55305 0.0071279
-0.083701 -1.55587 0.00432118
-0.0748241 -1.55557 0.00408627
-0.0879128 -1.54554 0.00347374
-0.107555 -1.53798 0.00776083
-0.094429 -1.53612 0.00504109
-0.114112 -1.52442 0.00835712
-0.107049 -1.52586 0.00441708
-0.0956 -1.52799 0.00301539
-0.0876446 -1.52985 0.000170095
-0.123213 -1.51368 0.008897
-0.112119 -1.51464 0.00603429
-0.0951609 -1.51636 0.000684738
-0.13213 -1.50283 0.00943758
-0.121255 -1.50457 0.00651317
-0.112992 -1.50652 0.00397964
-0.116182 -1.49428 0.0030408
-0.0982498 -1.49595 0.00135159
-0.126437 -1.48973 0.00708997
-0.119018 -1.48074 0.00209815
-0.147873 -1.47347 0.00796673
-0.135119 -1.47499 0.00653001
-0.127244 -1.47603 0.00376873
-0.153578 -1.46004 0.00850423
-0.146433 -1.46419 0.00586795
-0.147424 -1.45286 0.00203673
-0.133496 -1.45482 0.00180113
-0.162671 -1.44322 0.00679846
-0.156144 -1.4435 0.0064177
-0.147756 -1.44518 0.00651069
-0.165857 -1.43432 0.00955512
-0.152806 -1.43598 0.00129489
-0.177463 -1.42405 0.0088627
-0.165992 -1.42727 0.00737093
-0.157551 -1.42287 0.00305954
-0.176852 -1.41882 0.000404899
-0.164676 -1.41441 0.00474647
-0.157676 -1.41512 0.000216356
-0.182063 -1.40407 0.00427852
-0.173146 -1.40524 0.00514183
-0.165229 -1.40354 0.000970693
-0.187407 -1.39445 0.00876741
-0.177063 -1.39446 0.00218669
-0.167949 -1.3918 0.00275855
-0.193315 -1.38309 0.00627097
-0.186005 -1.38403 0.00345177
-0.177796 -1.38466 0.00308301
-0.204187 -1.37671 0.00373988
-0.195745 -1.37511 0.000439292
-0.178382 -1.37404 0.00107419
-0.204805 -1.3644 0.00123257
-0.191976 -1.36739 0.00201634
-0.189964 -1.36756 0.00172823
-0.212762 -1.35601 0.00319074
-0.204565 -1.35411 0.00055093
-0.197913 -1.35487 0.00560054
-0.187553 -1.35719 0.00399733
-0.215383 -1.34383 0.00263806
-0.204711 -1.34396 0.00215939
-0.241346 -1.33286 0.0013965
-0.22537 -1.33492 0.00138121
-0.213784 -1.33502 0.00217739
-0.203575 -1.33914 0.00471236
-0.224539 -1.32545 0.00316978
-0.216397 -1.32613 0.00621199
-0.242695 -1.31093 0.00290178
-0.23446 -1.31609 0.00423698
-0.22863 -1.31466 0.00361646
-0.262553 -1.30164 0.0024107
-0.253577 -1.30108 0.00227276
-0.244496 -1.30503 0.003171
-0.235111 -1.30629 0.00343444
-0.22644 -1.30532 0.00178318
-0.264574 -1.29361 0.00255477
-0.253265 -1.29452 0.00593114
-0.243462 -1.29612 0.00432869
-0.274881 -1.28276 0.00282376
-0.268264 -1.28483 0.00272302
-0.254272 -1.28462 0.00311489
-0.246809 -1.28965 0.00305496
-0.281949 -1.27181 0.00296884
-0.277168 -1.27533 0.0029539
-0.256622 -1.27556 0.00474409
-0.24682 -1.27901 0.00480401
-0.277868 -1.26769 0.00320681
-0.265772 -1.26673 0.00360181
-0.25904 -1.26469 0.00438301
-0.287627 -1.25465 0.00334095
-0.274641 -1.2557 0.00567097
-0.268164 -1.25452 0.00413076
-0.259435 -1.25717 0.00554735
-0.295357 -1.24393 0.00352668
-0.285305 -1.2459 0.00363858
-0.276794 -1.24464 0.0045308
-0.331383 -1.2392 0.000251329
-0.3048 -1.23069 0.00249244
-0.296226 -1.23407 0.00555571
-0.285164 -1.23428 0.00644521
-0.270624 -1.23971 0.00514926
-0.339414 -1.22768 0.000754485
-0.304981 -1.22316 0.00540082
-0.292529 -1.2214 0.00572335
-0.28623 -1.22564 0.00442285
-0.277462 -1.22858 0.00550758
-0.343677 -1.21431 0.00135058
-0.315027 -1.21519 0.0033477
-0.302518 -1.21516 0.00459363
-0.298269 -1.21304 0.00666032
-0.353119 -1.20355 0.00180414
-0.313697 -1.20549 0.00462181
-0.307001 -1.2048 0.00710318
-0.364185 -1.19355 0.00221258
-0.325505 -1.19786 0.00351572
-0.316065 -1.19288 0.00603857
-0.33633 -1.18435 0.00376346
-0.326283 -1.18516 0.00587013
-0.371328 -1.17221 5.2657e-06
-0.366073 -1.17911 0.0028526
-0.340117 -1.1765 0.00552635
-0.332705 -1.17461 0.00641779
-0.329662 -1.17632 0.00739692
-0.315329 -1.17952 0.00716723
-0.37698 -1.16846 0.00328131
-0.344831 -1.16758 0.00436215
-0.33336 -1.16489 0.00764334
-0.385907 -1.15684 0.0037564
-0.369417 -1.15677 0.000677058
-0.355795 -1.15526 0.00447255
-0.343165 -1.15826 0.00690275
-0.392805 -1.14435 0.0042736
-0.383856 -1.14839 0.000949392
-0.363393 -1.14036 0.00758477
-0.351509 -1.1471 0.0069698
-0.344816 -1.14232 0.00722896
-0.336142 -1.14896 0.00817253
-0.405136 -1.1339 0.00467406
-0.396434 -1.13877 0.00128121
-0.376591 -1.13288 0.00582414
-0.36357 -1.13916 0.00589313
-0.355922 -1.13606 0.00686651
-0.41544 -1.1225 0.00511784
-0.397583 -1.12492 0.00108317
-0.376761 -1.12541 0.00603819
-0.366026 -1.12509 0.00756122
-0.425669 -1.11073 0.00557497
-0.406188 -1.11333 0.00228353
-0.397144 -1.11104 0.000898875
-0.384525 -1.11508 0.00537963
-0.374911 -1.11198 0.00716181
-0.367948 -1.11461 0.00781253
-0.414592 -1.10175 0.00270834
-0.407608 -1.10167 0.0012237
-0.395964 -1.10272 0.00522149
-0.389848 -1.10321 0.00738811
-0.37684 -1.10295 0.0084645
-0.435758 -1.09872 0.00603807
-0.428488 -1.09204 0.00301689
-0.416102 -1.09133 0.00159646
-0.400661 -1.09349 0.00786296
-0.397469 -1.09105 0.0076916
-0.38575 -1.09482 0.00770315
-0.43632 -1.08193 0.00505896
-0.424521 -1.08067 0.00197903
-0.405405 -1.08424 0.00620622
-0.397687 -1.08383 0.00745303
-0.453432 -1.07381 0.00699865
-0.414234 -1.07545 0.00569778
-0.405465 -1.07725 0.00742448
-0.399551 -1.07285 0.00806583
-0.444535 -1.06799 0.00388434
-0.432811 -1.06984 0.00236518
-0.42774 -1.06175 0.00377692
-0.414335 -1.06463 0.00825466
-0.40415 -1.06467 0.0083831
-0.457262 -1.05579 0.00492478
-0.442787 -1.05963 0.00270999
-0.423748 -1.0583 0.00732403
-0.418119 -1.0554 0.00912756
-0.470538 -1.04777 0.00798967
-0.465766 -1.04466 0.00466922
-0.432049 -1.04277 0.0066182
-0.425251 -1.04414 0.00836969
-0.413056 -1.04412 0.0090242
-0.401826 -1.04259 6.00733e-05
-0.481341 -1.03465 0.00671209
-0.460526 -1.03779 0.00345957
-0.436265 -1.03421 0.0057003
-0.428564 -1.03832 0.00830298
-0.414196 -1.0355 0.000165294
