-2.7954 -3.9181 -0.20558
-2.9725 -3.8944 -0.20581
-2.9386 -3.8675 -0.23121
-2.8698 -3.8752 -0.21177
-2.8451 -3.8789 -0.21847
-3.0018 -3.8253 -0.21121
-2.9811 -3.8182 -0.22707
-2.9317 -3.8443 -0.21539
-2.8934 -3.8348 -0.20524
-2.8428 -3.8456 -0.21278
-3.0575 -3.7636 -0.22228
-3.0239 -3.7686 -0.20398
-2.9884 -3.7593 -0.2393
-2.933 -3.7696 -0.20822
-2.8685 -3.7707 -0.21416
-3.0777 -3.7106 -0.20499
-3.0346 -3.7286 -0.23581
-2.9763 -3.7248 -0.21069
-2.9316 -3.7081 -0.21285
-2.8995 -3.7401 -0.21466
-3.1566 -3.651 -0.22354
-3.1267 -3.66 -0.22615
-3.065 -3.6948 -0.22572
-3.0137 -3.6768 -0.21281
-2.9881 -3.6606 -0.20151
-3.124 -3.6407 -0.21706
-3.0558 -3.6141 -0.21258
-3.0272 -3.6138 -0.2066
-2.9881 -3.6459 -0.21376
-3.2007 -3.5531 -0.24182
-3.1705 -3.5835 -0.21901
-3.1396 -3.5934 -0.22417
-3.0878 -3.5701 -0.20773
-3.2208 -3.5244 -0.21748
-3.1504 -3.548 -0.20267
-3.0436 -3.5221 -0.20802
-3.2671 -3.476 -0.22796
-3.1594 -3.467 -0.20555
-3.1035 -3.4782 -0.20706
-3.0767 -3.4662 -0.20917
-3.3164 -3.4064 -0.22386
-3.2835 -3.4196 -0.23704
-3.2456 -3.4491 -0.20246
-3.1679 -3.4498 -0.20818
-3.143 -3.4359 -0.21099
-3.3163 -3.3802 -0.22282
-3.2677 -3.3919 -0.20515
-3.2013 -3.3946 -0.20736
-3.1667 -3.3752 -0.20883
-3.3932 -3.3251 -0.24338
-3.3307 -3.3321 -0.21737
-3.2997 -3.3384 -0.20042
-3.2212 -3.3339 -0.20811
-3.427 -3.2729 -0.22788
-3.3815 -3.2848 -0.23395
-3.2663 -3.2875 -0.20804
-3.4801 -3.2039 -0.24375
-3.4323 -3.2127 -0.22391
-3.3901 -3.2352 -0.20445
-3.3196 -3.2455 -0.20633
-3.2871 -3.2218 -0.20762
-3.5023 -3.1508 -0.22645
-3.4773 -3.1608 -0.23533
-3.4095 -3.1725 -0.20417
-3.3243 -3.1702 -0.20799
-3.5682 -3.1052 -0.23891
-3.5186 -3.1398 -0.22984
-3.4252 -3.1259 -0.20619
-3.3741 -3.1276 -0.2075
-3.3041 -3.1498 -0.20501
-3.5778 -3.0746 -0.23127
-3.5291 -3.0828 -0.22597
-3.4878 -3.0986 -0.20685
-3.4036 -3.0648 -0.2057
-3.3956 -3.0646 -0.20707
-3.6291 -3.019 -0.24582
-3.5666 -3.0409 -0.21864
-3.5301 -3.019 -0.21572
-3.4706 -3.0412 -0.20709
-3.4449 -3.0147 -0.20558
-3.6615 -2.9633 -0.2429
-3.6035 -2.9938 -0.21705
-3.5189 -2.9963 -0.20555
-3.4789 -2.9631 -0.20604
-3.6606 -2.923 -0.22885
-3.6212 -2.946 -0.21093
-3.5589 -2.9439 -0.20505
-3.5335 -2.9183 -0.2058
-3.7175 -2.8902 -0.24673
-3.6736 -2.8761 -0.22874
-3.6411 -2.8629 -0.20679
-3.5817 -2.881 -0.20636
-3.7507 -2.8216 -0.2465
-3.7215 -2.819 -0.23474
-3.6825 -2.846 -0.218
-3.6173 -2.8274 -0.20612
-3.8026 -2.7554 -0.24755
-3.7273 -2.7657 -0.22845
-3.6708 -2.7814 -0.2075
-3.6251 -2.7641 -0.20271
-3.7652 -2.719 -0.22228
-3.6715 -2.7059 -0.20563
-3.8214 -2.6711 -0.23929
-3.7985 -2.6934 -0.23093
-3.6735 -2.6958 -0.20202
-3.6382 -2.6997 -0.20141
-3.825 -2.6213 -0.24026
-3.7631 -2.6194 -0.21758
-3.7146 -2.6383 -0.20724
-3.6803 -2.6151 -0.20099
-3.9187 -2.5813 -0.23612
-3.7568 -2.5981 -0.20503
-3.714 -2.5913 -0.20505
-3.8592 -2.5482 -0.24049
-3.8252 -2.5251 -0.22248
-3.7747 -2.5318 -0.20397
-3.7416 -2.522 -0.22556
-3.9526 -2.4969 -0.20857
-3.8424 -2.4969 -0.20571
-3.7823 -2.4776 -0.21331
-3.5778 -2.4599 -0.24525
-3.7619 -2.4368 -0.21309
-3.6549 -2.404 -0.20683
-3.6042 -2.4378 -0.22628
-3.9292 -2.3961 -0.24501
-3.8218 -2.3893 -0.23121
-3.7416 -2.3624 -0.22067
-3.7067 -2.3036 -0.22906
-3.6957 -2.3241 -0.20783
-3.6259 -2.3234 -0.22109
-3.783 -2.2694 -0.20158
-3.7139 -2.2699 -0.22067
2.2576 -11.514 -0.15289
2.3566 -11.513 -0.15653
2.2341 -11.453 -0.15334
2.223 -11.381 -0.15191
2.34 -11.349 -0.15229
0.86109 -9.6314 -0.19387
1.1144 -9.647 -0.1942
0.80188 -9.5465 -0.19193
1.2345 -9.5125 -0.18776
0.73025 -9.4778 -0.18385
0.59228 -9.3588 -0.17212
0.63545 -9.3512 -0.19007
0.67597 -9.3762 -0.17761
0.71105 -9.3902 -0.19295
0.61523 -9.3025 -0.17669
0.68759 -9.3277 -0.19908
0.53604 -9.2736 -0.16672
0.57183 -9.2174 -0.17686
0.62552 -9.2134 -0.19242
0.43069 -9.1021 -0.156
0.51086 -9.1281 -0.16701
0.56907 -9.1098 -0.19175
0.43627 -9.081 -0.16302
0.38064 -9.0156 -0.15066
0.46646 -9.046 -0.17173
0.50111 -9.032 -0.18169
0.39138 -8.9781 -0.15703
0.40604 -8.9754 -0.16736
0.50981 -8.997 -0.19082
0.44521 -8.9257 -0.17559
0.34059 -8.8936 -0.15201
0.35909 -8.8656 -0.16096
0.4334 -8.8783 -0.19013
0.29937 -8.8031 -0.15709
0.38781 -8.8384 -0.17051
0.42875 -8.8264 -0.19901
0.32079 -8.7888 -0.16739
0.37092 -8.7838 -0.18488
0.17197 -8.7041 -0.15077
0.24369 -8.7306 -0.15272
0.26449 -8.7101 -0.16283
0.32904 -8.7116 -0.1748
0.35596 -8.7429 -0.19447
0.20023 -8.6587 -0.15969
0.28652 -8.6667 -0.18742
0.30045 -8.6616 -0.19685
0.28168 -8.6263 -0.18916
0.1861 -8.5503 -0.19634
0.21603 -8.5699 -0.18447
0.13076 -8.5018 -0.19525
0.1602 -8.5405 -0.15321
0.2329 -8.5277 -0.18021
0.1337 -8.4915 -0.19057
0.15728 -8.4824 -0.18043
0.084882 -8.4474 -0.15981
0.10872 -8.4269 -0.18569
0.036751 -8.3711 -0.1713
0.075895 -8.3854 -0.1875
0.023933 -8.3086 -0.1786
0.069273 -8.347 -0.1839
-0.05233 -8.2559 -0.18573
-0.0083995 -8.2707 -0.18398
0.017863 -8.2793 -0.19303
-0.051289 -8.2317 -0.17513
-0.031542 -8.2347 -0.176
-0.13234 -8.1564 -0.19038
-0.070211 -8.1695 -0.17522
-0.12631 -8.1276 -0.18074
-0.089605 -8.1182 -0.16187
-0.17776 -8.097 -0.18014
-0.12946 -8.0877 -0.16254
-0.22331 -8.0184 -0.18006
-0.1796 -8.0183 -0.16849
-0.14218 -8.0197 -0.15692
-0.31287 -7.9575 -0.17432
-0.21553 -7.9722 -0.17272
-0.30665 -7.9095 -0.17759
-0.27234 -7.9241 -0.16599
-0.22503 -7.9326 -0.17455
-0.1835 -7.9026 -0.19634
-0.33352 -7.871 -0.16802
-0.28582 -7.8885 -0.16715
-0.23995 -7.8621 -0.19392
-0.38573 -7.8139 -0.1694
-0.34683 -7.845 -0.1604
-0.2891 -7.8132 -0.19086
-0.24308 -7.8442 -0.19721
-0.40655 -7.7541 -0.15631
-0.39 -7.7726 -0.18895
-0.3303 -7.7836 -0.18058
-0.28847 -7.766 -0.19727
-0.40816 -7.734 -0.16877
-0.38959 -7.7373 -0.16681
-0.34254 -7.7291 -0.19442
-0.46579 -7.6764 -0.15901
-0.42797 -7.6651 -0.17839
-0.39116 -7.6882 -0.1976
-0.33895 -7.6585 -0.19784
-0.54476 -7.6171 -0.15983
-0.46879 -7.6265 -0.17803
-0.43703 -7.636 -0.18623
-0.38418 -7.6262 -0.18758
-0.5313 -7.576 -0.16251
-0.46924 -7.5584 -0.18472
-0.4339 -7.581 -0.18494
-0.61546 -7.5224 -0.15709
-0.56834 -7.506 -0.17229
-0.54954 -7.5452 -0.16897
-0.47809 -7.5156 -0.19071
-0.57268 -7.4875 -0.16834
-0.52674 -7.4684 -0.18318
-0.48449 -7.4682 -0.18776
-0.61986 -7.409 -0.16432
-0.57813 -7.4154 -0.18133
-0.5284 -7.4208 -0.17593
-0.66678 -7.3761 -0.15193
-0.63189 -7.3841 -0.17202
-0.57626 -7.3689 -0.1827
-0.51839 -7.3946 -0.19349
-0.73747 -7.3194 -0.15038
-0.674 -7.3093 -0.16774
-0.6276 -7.3223 -0.18148
-0.59303 -7.3416 -0.17806
-0.77944 -7.2501 -0.15897
-0.70923 -7.26 -0.1727
-0.66015 -7.2837 -0.17722
-0.63215 -7.2872 -0.17475
-0.77719 -7.2345 -0.15668
-0.72111 -7.2295 -0.17368
-0.67547 -7.2328 -0.16325
-0.63256 -7.2252 -0.18302
-0.58151 -7.236 -0.19774
-0.8013 -7.1656 -0.15241
-0.78937 -7.1739 -0.17004
-0.72602 -7.1736 -0.17211
-0.68987 -7.1977 -0.18188
-0.62964 -7.1955 -0.19552
-0.82359 -7.1171 -0.16821
-0.72921 -7.1261 -0.17124
-0.67178 -7.146 -0.19265
-0.86612 -7.0871 -0.16739
-0.80966 -7.069 -0.17614
-0.76098 -7.0756 -0.16422
-0.70814 -7.0873 -0.18911
-0.91043 -7.0205 -0.15135
-0.8201 -7.0429 -0.15786
-0.79152 -7.0237 -0.17144
-0.74322 -7.0283 -0.18558
-0.91942 -6.9713 -0.17077
-0.8885 -6.9879 -0.16795
-0.83091 -6.9774 -0.15994
-0.7885 -6.9854 -0.18333
-1.0163 -6.9202 -0.16239
-0.97245 -6.9379 -0.15102
-0.90145 -6.927 -0.15425
-0.8324 -6.9424 -0.18109
-0.9744 -6.8761 -0.16926
-0.9466 -6.8839 -0.15216
-0.8382 -6.8752 -0.17776
-0.95956 -6.8315 -0.17102
-0.92218 -6.8009 -0.15866
-0.88157 -6.8309 -0.17548
-1.075 -6.7819 -0.1582
-1.0491 -6.7551 -0.15998
-0.92506 -6.7788 -0.18047
-1.039 -6.7258 -0.16838
-0.96192 -6.7359 -0.16229
-0.94442 -6.7088 -0.19154
-1.1352 -6.6628 -0.15464
-1.0058 -6.68 -0.1972
-0.9853 -6.6698 -0.16659
-1.1129 -6.6219 -0.17055
-1.0603 -6.6446 -0.19572
-1.037 -6.625 -0.17227
-1.106 -6.5832 -0.16488
-1.0647 -6.5643 -0.16883
-1.2035 -6.5346 -0.15504
-1.1838 -6.5363 -0.15842
-1.1181 -6.5333 -0.15928
-1.0981 -6.5102 -0.17452
-1.2376 -6.4509 -0.15816
-1.177 -6.482 -0.16458
-1.1089 -6.4907 -0.18658
-1.1852 -6.4284 -0.16244
-1.1336 -6.4405 -0.17689
-1.3055 -6.3805 -0.15636
-1.2606 -6.3948 -0.15614
-1.2431 -6.3845 -0.16208
-1.189 -6.373 -0.17573
-1.33 -6.3193 -0.15653
-1.2336 -6.3374 -0.18682
-1.1996 -6.3494 -0.16616
-1.3625 -6.2706 -0.15339
-1.2581 -6.2634 -0.18263
-1.2051 -6.2652 -0.16096
-1.0147 -6.2751 -0.19785
-1.3829 -6.2103 -0.15697
-1.2615 -6.2413 -0.16062
-1.0899 -6.2483 -0.19909
-1.4254 -6.189 -0.1513
-1.3222 -6.1639 -0.18431
-1.2841 -6.1887 -0.1716
-1.1878 -6.1608 -0.19707
-1.1217 -6.1952 -0.19665
-1.453 -6.1056 -0.15376
-1.4455 -6.1452 -0.15623
-1.3677 -6.1044 -0.17522
-1.3406 -6.1496 -0.18492
-1.2927 -6.1026 -0.1527
-1.505 -6.0547 -0.15401
-1.4202 -6.0738 -0.19506
-1.3734 -6.0867 -0.18171
-1.3328 -6.0751 -0.16466
-1.2835 -6.0694 -0.19495
-1.2011 -6.0961 -0.19314
-1.5754 -6.0015 -0.15289
-1.4368 -6.0235 -0.16466
-1.3837 -6.0349 -0.15693
-1.313 -6.013 -0.19243
-1.5941 -5.9731 -0.15104
-1.5091 -5.984 -0.17713
-1.4593 -5.9918 -0.1777
-1.4451 -5.9943 -0.19082
-1.3717 -5.9781 -0.19566
-1.635 -5.9187 -0.15094
-1.5035 -5.9044 -0.15802
-1.4758 -5.9128 -0.17333
-1.4189 -5.9337 -0.19477
-1.5942 -5.8513 -0.19725
-1.5286 -5.8795 -0.18413
-1.5578 -5.8175 -0.18269
-1.5229 -5.8359 -0.19459
-1.6756 -5.7589 -0.1687
-1.6222 -5.7814 -0.18783
-1.561 -5.7746 -0.17764
-1.6771 -5.7285 -0.19181
-1.6273 -5.7222 -0.18116
-1.581 -5.7389 -0.15775
-1.7317 -5.6691 -0.19406
-1.6744 -5.6776 -0.18122
-1.6363 -5.6677 -0.19588
-1.7808 -5.6069 -0.19713
-1.7214 -5.6318 -0.18455
-1.6726 -5.6212 -0.17921
-1.7746 -5.5739 -0.19026
-1.7295 -5.5712 -0.17493
-1.8716 -5.5109 -0.19457
-1.8244 -5.5351 -0.1816
-1.7819 -5.5246 -0.18247
-1.9066 -5.4593 -0.1575
-1.8649 -5.4993 -0.19502
-1.8246 -5.4725 -0.16831
-1.7954 -5.4727 -0.19333
-1.8783 -5.4322 -0.18943
-1.8178 -5.4385 -0.1737
-1.9791 -5.3639 -0.19589
-1.9203 -5.38 -0.18238
-1.8698 -5.3895 -0.17296
-2 -5.3099 -0.1997
-1.975 -5.3341 -0.18531
-1.9293 -5.3343 -0.15773
-1.8886 -5.3044 -0.19924
-2.0628 -5.2852 -0.19316
-2.0135 -5.2794 -0.18476
-1.9571 -5.2898 -0.19043
-1.9358 -5.2689 -0.18008
-2.0628 -5.2353 -0.17989
-2.0247 -5.2287 -0.19147
-1.9787 -5.2275 -0.17661
-2.1408 -5.1825 -0.18895
-2.0737 -5.1611 -0.18603
-2.0261 -5.1813 -0.17628
-1.9807 -5.1589 -0.19531
-2.1531 -5.1361 -0.1842
-2.1189 -5.1192 -0.1844
-2.0718 -5.1421 -0.17137
-2.1922 -5.0823 -0.18779
-2.1198 -5.0873 -0.17918
-2.0728 -5.0725 -0.1952
-2.211 -5.0431 -0.18836
-2.173 -5.0326 -0.18521
-2.1214 -5.0188 -0.17023
-2.2741 -4.9698 -0.18182
-2.2227 -4.9814 -0.18668
-2.1683 -4.9825 -0.1741
-2.3482 -4.9227 -0.18336
-2.28 -4.9177 -0.18588
-2.2225 -4.9328 -0.17528
-2.3526 -4.8609 -0.18704
-2.3181 -4.861 -0.18388
-2.2707 -4.8886 -0.18042
-2.2417 -4.8819 -0.18217
-2.4175 -4.8026 -0.18117
-2.334 -4.8268 -0.1712
-2.2841 -4.8374 -0.18146
-2.3632 -4.7899 -0.17685
-2.322 -4.7773 -0.18166
-2.4155 -4.7341 -0.1842
-2.3764 -4.7278 -0.17396
-2.4654 -4.6712 -0.18103
-2.4248 -4.6786 -0.17606
-2.3887 -4.6661 -0.18905
-2.5754 -4.6037 -0.15555
-2.5043 -4.6258 -0.16609
-2.4669 -4.6259 -0.16619
-2.4356 -4.6189 -0.18611
-2.3926 -4.6443 -0.16969
-2.5127 -4.5743 -0.17467
-2.4644 -4.5855 -0.17703
-2.4293 -4.5786 -0.18387
-2.6142 -4.5481 -0.15413
-2.5611 -4.5259 -0.16412
-2.5277 -4.5218 -0.18039
-2.4739 -4.5383 -0.18318
-2.6275 -4.475 -0.17049
-2.5666 -4.4631 -0.17366
-2.5188 -4.4772 -0.19097
-2.694 -4.4379 -0.17974
-2.6436 -4.4175 -0.16679
-2.5782 -4.4355 -0.18366
-2.5148 -4.4401 -0.19882
-2.7421 -4.3731 -0.17969
-2.6787 -4.3556 -0.16503
-2.6254 -4.3687 -0.17982
-2.5863 -4.3863 -0.1897
-2.7593 -4.3259 -0.16083
-2.7298 -4.3021 -0.17615
-2.6865 -4.3239 -0.18058
-2.6309 -4.3175 -0.188
-2.7737 -4.2521 -0.158
-2.7146 -4.2709 -0.17706
-2.6793 -4.268 -0.18721
-2.6421 -4.2905 -0.1938
-2.5837 -4.2899 -0.16494
-2.7704 -4.2416 -0.17206
-2.7332 -4.2287 -0.17953
-2.6847 -4.2314 -0.19886
-2.8732 -4.1621 -0.16783
-2.8136 -4.1773 -0.16588
-2.7623 -4.189 -0.17755
-2.7428 -4.1847 -0.19005
-2.6827 -4.1775 -0.18339
-2.6364 -4.1951 -0.19969
-2.8559 -4.1387 -0.16611
-2.8171 -4.1252 -0.18517
-2.7705 -4.1213 -0.19906
-2.7236 -4.1352 -0.17452
-2.6778 -4.1425 -0.19862
-2.9048 -4.0857 -0.16538
-2.8643 -4.0749 -0.16282
-2.8363 -4.0738 -0.18454
-2.7963 -4.067 -0.1938
-2.6888 -4.0665 -0.17879
-2.9531 -4.032 -0.16465
-2.9119 -4.0114 -0.16767
-2.8845 -4.0162 -0.17065
-2.8295 -4.0135 -0.17924
-2.7088 -4.0319 -0.17263
-3.0086 -3.9836 -0.16441
-2.9589 -3.982 -0.17158
-2.9482 -3.9536 -0.15082
-2.8418 -3.9577 -0.16946
-2.772 -3.9758 -0.17709
-3.024 -3.9219 -0.16187
-2.9327 -3.9445 -0.18503
-2.8936 -3.9499 -0.19924
-2.83 -3.9226 -0.17912
-3.0645 -3.8826 -0.17098
-3.0228 -3.8883 -0.17704
-2.9808 -3.8823 -0.18818
-2.9291 -3.8801 -0.17949
-2.8782 -3.88 -0.19377
-3.1038 -3.8232 -0.16995
-3.0241 -3.8237 -0.17771
-2.9772 -3.802 -0.18659
-2.8164 -3.8314 -0.16063
-3.1232 -3.7763 -0.16433
-3.0634 -3.77 -0.18602
-3.0298 -3.7511 -0.19351
-3.2064 -3.7171 -0.16929
-3.1122 -3.7234 -0.16786
-3.0679 -3.7428 -0.17878
-2.9845 -3.7245 -0.17761
-2.9127 -3.7473 -0.16296
-3.1787 -3.683 -0.16853
-3.1341 -3.6744 -0.18512
-3.0317 -3.6698 -0.19047
-3.1806 -3.6181 -0.1754
-3.11 -3.6154 -0.19147
-3.088 -3.631 -0.19087
-3.0208 -3.6439 -0.17714
-3.2402 -3.5715 -0.17099
-3.1785 -3.591 -0.16529
-3.136 -3.5851 -0.19076
-3.0555 -3.5631 -0.1767
-3.2813 -3.5126 -0.17331
-3.211 -3.5307 -0.1689
-3.1832 -3.5396 -0.19214
-3.3492 -3.4677 -0.1651
-3.2802 -3.465 -0.18209
-3.214 -3.4792 -0.18957
-3.0789 -3.4813 -0.17569
-3.3654 -3.4422 -0.1556
-3.3286 -3.4031 -0.19806
-3.2953 -3.4336 -0.17601
-3.1996 -3.422 -0.19984
-3.3637 -3.3987 -0.16911
-3.35 -3.3565 -0.15205
-3.2949 -3.3773 -0.18692
-3.4247 -3.3114 -0.15311
-3.3708 -3.3228 -0.16675
-3.3296 -3.327 -0.19213
-3.272 -3.3494 -0.17449
-3.4045 -3.269 -0.17202
-3.3752 -3.2776 -0.19085
-3.3407 -3.2752 -0.18809
-3.4867 -3.2139 -0.16136
-3.4363 -3.2222 -0.16105
-3.3926 -3.2494 -0.15918
-3.312 -3.227 -0.18223
-3.1523 -3.2307 -0.17315
-3.1342 -3.2323 -0.15963
-3.5217 -3.1723 -0.15658
-3.4217 -3.1702 -0.19438
-3.376 -3.1889 -0.18072
-3.5773 -3.1164 -0.15679
-3.5361 -3.1038 -0.17139
-3.4616 -3.1206 -0.1841
-3.4141 -3.1425 -0.18594
-3.2007 -3.1423 -0.17363
-3.4775 -3.0617 -0.19283
-3.4202 -3.093 -0.18552
-3.6007 -3.0271 -0.15957
-3.5681 -3.0017 -0.18651
-3.4939 -3.023 -0.1833
-3.443 -3.0106 -0.17549
-3.621 -2.9733 -0.16457
-3.5586 -2.9673 -0.1941
-3.3125 -2.9554 -0.17542
-3.6822 -2.9017 -0.1588
-3.6313 -2.9277 -0.18451
-3.5455 -2.9155 -0.18304
-3.4797 -2.9235 -0.17557
-3.7456 -2.8837 -0.151
-3.6067 -2.8698 -0.19051
-3.376 -2.8584 -0.17677
-3.7167 -2.8369 -0.15819
-3.6571 -2.825 -0.18466
-3.6429 -2.8482 -0.16755
-3.5012 -2.8191 -0.18393
-3.4855 -2.8394 -0.17413
-3.7975 -2.7876 -0.15981
-3.7067 -2.7991 -0.16855
-3.6762 -2.7607 -0.18357
-3.6291 -2.7887 -0.19545
-3.5102 -2.7521 -0.17369
-3.8494 -2.7271 -0.16007
-3.7762 -2.7331 -0.1867
-3.7139 -2.7275 -0.16679
-3.6427 -2.7184 -0.192
-3.7854 -2.6806 -0.16823
-3.732 -2.6958 -0.1969
-3.9246 -2.6226 -0.15024
-3.8643 -2.6438 -0.16434
-3.736 -2.6336 -0.18891
-3.6891 -2.6233 -0.19075
-3.626 -2.6352 -0.18741
-3.8802 -2.5638 -0.16879
-3.7228 -2.5507 -0.1927
-3.6353 -2.5561 -0.19739
-4.0107 -2.5396 -0.16123
-3.9691 -2.5186 -0.17111
-3.8285 -2.5318 -0.18994
-3.8 -2.5174 -0.19508
-3.717 -2.527 -0.19987
-3.6672 -2.5413 -0.1778
-3.6141 -2.5393 -0.18334
-3.5103 -2.5433 -0.19583
-4.2304 -2.4547 -0.15742
-4.1714 -2.4767 -0.19578
-4.0212 -2.4749 -0.16985
-3.9824 -2.453 -0.15796
-3.8686 -2.4795 -0.18371
-3.8192 -2.4567 -0.18585
-3.6359 -2.4691 -0.18534
-3.9812 -2.4476 -0.16979
-3.7882 -2.4313 -0.18274
-3.8546 -2.3869 -0.19335
-3.7287 -2.3573 -0.17841
-3.6156 -2.3893 -0.1938
-3.7823 -2.3498 -0.19158
-3.6208 -2.3432 -0.19906
-3.7745 -2.2558 -0.17929
-3.7126 -2.2921 -0.16919
-3.8498 -2.2481 -0.19383
2.2037 -11.476 -0.14346
2.2762 -11.485 -0.1287
2.1837 -11.403 -0.10381
2.2282 -11.389 -0.14756
2.1239 -11.344 -0.1413
2.0893 -11.273 -0.1422
2.1199 -11.269 -0.12825
2.0205 -11.231 -0.13576
2.1894 -11.212 -0.13423
2.3083 -11.228 -0.1017
1.9788 -11.164 -0.12936
2.0991 -11.157 -0.13812
1.9902 -11.148 -0.11756
1.9881 -11.084 -0.13293
1.8839 -11.018 -0.123
1.9441 -11.031 -0.10445
1.9753 -11.038 -0.13601
1.871 -10.986 -0.13256
1.9579 -10.96 -0.13736
1.8263 -10.931 -0.1224
1.7324 -10.855 -0.11319
1.7939 -10.861 -0.11636
1.864 -10.804 -0.13009
1.6166 -10.766 -0.11774
1.5867 -10.731 -0.10505
1.6067 -10.725 -0.12188
1.7659 -10.736 -0.12349
1.6122 -10.674 -0.11648
1.6566 -10.684 -0.10578
1.7232 -10.663 -0.11279
1.5184 -10.621 -0.10407
1.6358 -10.637 -0.11481
1.6508 -10.609 -0.12187
1.5472 -10.599 -0.12035
1.7019 -10.566 -0.10259
1.7524 -10.567 -0.12188
1.8308 -10.576 -0.10958
1.6658 -10.546 -0.11629
1.7177 -10.531 -0.11797
1.5039 -10.436 -0.11788
1.4835 -10.392 -0.10954
1.4673 -10.294 -0.10106
1.3751 -10.125 -0.10204
1.4538 -10.148 -0.10613
1.4031 -10.096 -0.10734
1.3793 -10.028 -0.10151
1.2066 -9.9813 -0.10203
1.3064 -9.9442 -0.10208
0.33359 -8.929 -0.14537
0.26759 -8.8753 -0.1462
0.15764 -8.7557 -0.1343
0.21998 -8.7932 -0.14128
0.17145 -8.7003 -0.14036
0.12216 -8.6587 -0.1286
0.12532 -8.6235 -0.13592
0.077307 -8.5669 -0.12788
0.13929 -8.584 -0.14403
0.085079 -8.519 -0.14016
0.031403 -8.4825 -0.12794
0.10918 -8.4598 -0.14865
-0.023262 -8.4246 -0.1245
-0.071461 -8.3889 -0.11239
0.06358 -8.3693 -0.14364
-0.10848 -8.3076 -0.10769
-0.060462 -8.3197 -0.12356
0.0004746 -8.335 -0.14151
-0.056224 -8.2807 -0.13838
-0.14772 -8.2355 -0.10352
-0.086691 -8.2248 -0.12813
0.0045975 -8.2217 -0.14789
-0.14678 -8.1958 -0.11159
-0.091658 -8.1799 -0.13295
-0.19823 -8.1416 -0.10851
-0.13442 -8.134 -0.13049
-0.26433 -8.0772 -0.11464
-0.21987 -8.0739 -0.11587
-0.19254 -8.0925 -0.11575
-0.16115 -8.0226 -0.14361
-0.2818 -7.9857 -0.10483
-0.23169 -7.9761 -0.13468
-0.19846 -7.954 -0.13351
-0.33149 -7.914 -0.10573
-0.27094 -7.9237 -0.12536
-0.32838 -7.858 -0.13201
-0.27611 -7.8853 -0.14293
-0.37063 -7.8447 -0.10194
-0.31534 -7.8336 -0.1337
-0.36074 -7.793 -0.11846
-0.42232 -7.7163 -0.12109
-0.36721 -7.7328 -0.13884
-0.4579 -7.6876 -0.11293
-0.41763 -7.6619 -0.13902
-0.38383 -7.6977 -0.12014
-0.50101 -7.6211 -0.10287
-0.45997 -7.6068 -0.13697
-0.53617 -7.5809 -0.12555
-0.47056 -7.582 -0.12469
-0.57522 -7.502 -0.1402
-0.51198 -7.5211 -0.12816
-0.57146 -7.4714 -0.13049
-0.66356 -7.4211 -0.14605
-0.62469 -7.4309 -0.12637
-0.68014 -7.3623 -0.13378
-0.60292 -7.3576 -0.12436
-0.73152 -7.3092 -0.14727
-0.68298 -7.3199 -0.11186
-0.64624 -7.3468 -0.10924
-0.80852 -7.2619 -0.14535
-0.72585 -7.2685 -0.1347
-0.67692 -7.2783 -0.12398
-0.81631 -7.224 -0.14723
-0.7709 -7.2161 -0.12744
-0.74396 -7.2412 -0.11092
-0.82858 -7.1672 -0.12022
-0.78256 -7.1678 -0.11897
-0.90138 -7.1089 -0.13302
-0.85574 -7.1203 -0.13704
-0.82527 -7.1392 -0.13426
-0.90676 -7.079 -0.14844
-0.87223 -7.0816 -0.11967
-0.81136 -7.0903 -0.12554
-0.91545 -7.0261 -0.13104
-0.89807 -7.0187 -0.10861
-0.98517 -6.9691 -0.13425
-0.93985 -6.9746 -0.12428
-0.89901 -6.96 -0.13683
-1.0226 -6.9193 -0.13864
-0.99909 -6.9268 -0.12559
-0.93491 -6.9327 -0.12988
-0.87687 -6.9391 -0.14928
-1.0512 -6.8708 -0.13359
-1.028 -6.8741 -0.11482
-0.98738 -6.8804 -0.12279
-1.0707 -6.8302 -0.12361
-1.0378 -6.8288 -0.13518
-0.96227 -6.8123 -0.14772
-1.1057 -6.7737 -0.13004
-1.0853 -6.7618 -0.12262
-1.1743 -6.7092 -0.12487
-1.1271 -6.7313 -0.1319
-1.0335 -6.7104 -0.14238
-0.97706 -6.7405 -0.14328
-1.2139 -6.6872 -0.12616
-1.1444 -6.6806 -0.11743
-1.0782 -6.6892 -0.13733
-1.2153 -6.6351 -0.1216
-1.1708 -6.6255 -0.12002
-1.0733 -6.6229 -0.13752
-0.98631 -6.608 -0.14722
-1.2622 -6.581 -0.12056
-1.2285 -6.5575 -0.13451
-1.1719 -6.5965 -0.12032
-1.0984 -6.5544 -0.14593
-1.0497 -6.5886 -0.14717
-1.319 -6.5316 -0.11616
-1.2833 -6.5243 -0.12662
-1.2307 -6.5422 -0.11114
-1.1811 -6.5145 -0.13282
-1.1267 -6.5477 -0.13379
-1.3276 -6.4817 -0.12384
-1.2801 -6.4802 -0.12527
-1.2352 -6.4804 -0.13182
-1.1878 -6.4764 -0.1428
-1.1252 -6.4987 -0.14293
-1.401 -6.4405 -0.11808
-1.3668 -6.423 -0.12214
-1.3338 -6.4182 -0.11241
-1.2581 -6.4201 -0.12857
-1.213 -6.4197 -0.13979
-1.4098 -6.3677 -0.11341
-1.3808 -6.3648 -0.11555
-1.3143 -6.3882 -0.13701
-1.4322 -6.3178 -0.12147
-1.371 -6.3214 -0.12768
-1.3323 -6.3233 -0.12429
-1.2917 -6.3309 -0.13601
-1.2305 -6.3351 -0.14203
-1.4669 -6.2627 -0.12185
-1.4313 -6.2767 -0.13117
-1.3444 -6.2995 -0.13527
-1.257 -6.2586 -0.14499
-1.5231 -6.2058 -0.1065
-1.4832 -6.2301 -0.11271
-1.4216 -6.2318 -0.11925
-1.359 -6.2348 -0.13168
-1.3039 -6.2232 -0.14387
-1.564 -6.1532 -0.10353
-1.5425 -6.1916 -0.11951
-1.4566 -6.1714 -0.11507
-1.4462 -6.1801 -0.11835
-1.3802 -6.1762 -0.12868
-1.3202 -6.1609 -0.14047
-1.6073 -6.1308 -0.11158
-1.5238 -6.13 -0.10811
-1.488 -6.1242 -0.1378
-1.4158 -6.1303 -0.12679
-1.3659 -6.1244 -0.13933
-1.6094 -6.0788 -0.10091
-1.5665 -6.0676 -0.1251
-1.4654 -6.0699 -0.1184
-1.3883 -6.0678 -0.13648
-1.6412 -6.013 -0.11064
-1.5505 -6.0016 -0.10793
-1.545 -6.0156 -0.11721
-1.4015 -6.0053 -0.13312
-1.7065 -5.9569 -0.10209
-1.6901 -5.9554 -0.13516
-1.6135 -5.9776 -0.14079
-1.5859 -5.9706 -0.11567
-1.5397 -5.9843 -0.1431
-1.4802 -5.9781 -0.14141
-1.6841 -5.926 -0.11144
-1.6429 -5.9415 -0.10945
-1.5798 -5.9448 -0.10558
-1.5466 -5.9015 -0.13071
-1.4933 -5.9386 -0.14036
-1.6795 -5.8627 -0.12366
-1.6297 -5.871 -0.10841
-1.5928 -5.8973 -0.11773
-1.5323 -5.8501 -0.14309
-1.4937 -5.8939 -0.14472
-1.795 -5.8073 -0.10172
-1.7253 -5.8347 -0.11637
-1.669 -5.8162 -0.11918
-1.618 -5.8043 -0.13681
-1.58 -5.8261 -0.14075
-1.5486 -5.8317 -0.12679
-1.7821 -5.762 -0.11465
-1.716 -5.7686 -0.11892
-1.6669 -5.7827 -0.13693
-1.7675 -5.7178 -0.12019
-1.7219 -5.7215 -0.13183
-1.6772 -5.7358 -0.14251
-1.5833 -5.7432 -0.13817
-1.8298 -5.6897 -0.11317
-1.7581 -5.6576 -0.12647
-1.716 -5.6836 -0.12567
-1.6838 -5.6688 -0.14255
-1.8939 -5.6431 -0.11001
-1.8188 -5.6304 -0.13751
-1.7866 -5.6293 -0.14
-1.7188 -5.6166 -0.12701
-1.9418 -5.57 -0.10803
-1.8649 -5.5852 -0.13037
-1.8197 -5.5713 -0.12401
-1.7844 -5.5884 -0.12412
-1.7484 -5.5782 -0.1332
-1.6751 -5.5759 -0.14309
-1.9219 -5.5163 -0.13369
-1.8724 -5.5312 -0.12022
-1.8283 -5.5238 -0.13021
-1.7978 -5.5328 -0.13793
-1.9798 -5.4773 -0.11412
-1.9058 -5.4642 -0.10303
-1.8709 -5.4699 -0.13524
-1.8363 -5.4751 -0.12848
-2.0371 -5.4307 -0.10438
-1.9791 -5.4288 -0.13284
-1.9223 -5.4059 -0.10055
-1.8603 -5.4207 -0.12625
-2.0958 -5.3819 -0.10331
-2.0255 -5.3815 -0.1305
-1.9811 -5.3745 -0.13876
-1.9135 -5.3845 -0.13003
-1.8877 -5.3917 -0.12698
-2.0769 -5.3331 -0.11935
-2.0282 -5.3144 -0.13518
-1.9063 -5.3239 -0.12341
-2.1322 -5.2984 -0.10104
-2.0662 -5.2724 -0.13303
-2.0232 -5.2556 -0.11679
-1.9734 -5.2872 -0.12791
-2.1537 -5.2197 -0.12914
-2.1144 -5.2012 -0.12787
-2.0853 -5.2145 -0.12738
-1.9944 -5.2116 -0.14654
-2.1793 -5.166 -0.12746
-2.1381 -5.163 -0.11172
-2.0549 -5.1893 -0.129
-2.203 -5.1082 -0.12378
-2.1582 -5.1268 -0.13984
-2.1163 -5.1288 -0.13297
-2.0672 -5.1299 -0.12984
-2.0438 -5.1467 -0.11895
-2.2567 -5.0614 -0.1131
-2.2094 -5.0636 -0.12548
-2.1794 -5.0779 -0.12587
-2.1323 -5.0997 -0.10557
-2.0984 -5.0796 -0.12822
-2.2598 -5.0215 -0.12796
-2.2304 -5.0252 -0.11483
-2.1957 -5.0259 -0.11768
-2.138 -5.0335 -0.12708
-2.2693 -4.9526 -0.12564
-2.224 -4.975 -0.12245
-2.1939 -4.9971 -0.12697
-2.3206 -4.9161 -0.10312
-2.2847 -4.9323 -0.12426
-2.1882 -4.9257 -0.12331
-2.3912 -4.8742 -0.10915
-2.3312 -4.8704 -0.11567
-2.2637 -4.8728 -0.13308
-2.2169 -4.8732 -0.12165
-2.4253 -4.8004 -0.10746
-2.3913 -4.8172 -0.12019
-2.3226 -4.8366 -0.12633
-2.4414 -4.7588 -0.12028
-2.3743 -4.7831 -0.12429
-2.3363 -4.7782 -0.12835
-2.478 -4.7239 -0.1123
-2.4064 -4.7037 -0.12541
-2.3694 -4.7264 -0.12696
-2.3357 -4.7296 -0.12491
-2.527 -4.6991 -0.10576
-2.4622 -4.6581 -0.12489
-2.4245 -4.6851 -0.12467
-2.3889 -4.6638 -0.13112
-2.5352 -4.6334 -0.1152
-2.4716 -4.6277 -0.11364
-2.4311 -4.6227 -0.12998
-2.5604 -4.5686 -0.11908
-2.5087 -4.5719 -0.11244
-2.4834 -4.5766 -0.12344
-2.6326 -4.5346 -0.11469
-2.5731 -4.512 -0.11097
-2.532 -4.5156 -0.12581
-2.4176 -4.5286 -0.13782
-2.6121 -4.4768 -0.11177
-2.5808 -4.4796 -0.13081
-2.5277 -4.4572 -0.12626
-2.484 -4.4952 -0.13837
-2.6658 -4.4295 -0.10014
-2.6379 -4.4181 -0.12178
-2.5906 -4.4235 -0.1188
-2.5385 -4.4495 -0.10308
-2.6754 -4.3649 -0.1232
-2.6406 -4.3821 -0.12007
-2.564 -4.3947 -0.13644
-2.7729 -4.3063 -0.11478
-2.7124 -4.32 -0.1121
-2.6713 -4.3194 -0.12453
-2.5856 -4.3338 -0.13448
-2.7303 -4.2808 -0.12652
-2.692 -4.2561 -0.12317
-2.801 -4.2173 -0.11379
-2.7721 -4.2242 -0.1237
-2.7353 -4.2297 -0.11893
-2.6968 -4.2479 -0.13444
-2.8242 -4.1807 -0.12912
-2.7674 -4.1824 -0.11438
-2.8532 -4.112 -0.12287
-2.8175 -4.1228 -0.11186
-2.7893 -4.1194 -0.12169
-2.903 -4.0771 -0.1103
-2.8721 -4.067 -0.11482
-2.8333 -4.0738 -0.12962
-2.9514 -4.0081 -0.12226
-2.9102 -4.024 -0.10896
-2.8773 -4.0276 -0.11599
-2.9544 -3.9662 -0.13982
-2.9423 -3.9756 -0.10598
-2.8728 -3.9862 -0.13386
-2.9624 -3.9188 -0.11776
-2.9258 -3.9376 -0.10952
-2.8967 -3.933 -0.11581
-3.0471 -3.8996 -0.12156
-2.9601 -3.879 -0.12009
-2.9385 -3.8869 -0.10454
-3.0651 -3.8355 -0.11985
-3.0169 -3.8266 -0.12154
-2.9858 -3.8298 -0.11685
-3.1207 -3.7818 -0.11991
-3.0612 -3.7774 -0.13732
-3.0358 -3.7797 -0.10784
-3.1659 -3.7244 -0.11951
-3.1119 -3.7233 -0.11791
-3.0722 -3.7288 -0.11655
-3.037 -3.7283 -0.10714
-3.1747 -3.6563 -0.1228
-3.1157 -3.6663 -0.11755
-3.081 -3.6982 -0.12627
-3.2231 -3.6088 -0.11797
-3.1635 -3.6238 -0.11491
-3.1116 -3.608 -0.10593
-3.2528 -3.5739 -0.13517
-3.2158 -3.5974 -0.12225
-3.1837 -3.5659 -0.10867
-3.1055 -3.5796 -0.11008
-3.2632 -3.5272 -0.12163
-3.2348 -3.5352 -0.11482
-3.1957 -3.5006 -0.10521
-3.3298 -3.48 -0.11724
-3.2837 -3.4796 -0.11635
-3.3613 -3.4158 -0.11634
-3.3142 -3.4199 -0.11668
-3.2916 -3.4167 -0.11898
-3.2347 -3.4396 -0.10701
-3.4016 -3.3524 -0.11585
-3.3721 -3.3549 -0.12519
-3.3378 -3.3649 -0.12184
-3.4274 -3.3356 -0.12393
-3.382 -3.31 -0.11406
-3.3473 -3.3466 -0.107
-3.4662 -3.2621 -0.14274
-3.426 -3.2797 -0.11824
-3.3404 -3.266 -0.10778
-3.5118 -3.2081 -0.13733
-3.475 -3.2192 -0.11161
-3.4141 -3.2412 -0.10623
-3.5891 -3.1507 -0.14349
-3.515 -3.162 -0.11942
-3.471 -3.1976 -0.1062
-3.4224 -3.166 -0.10733
-3.5726 -3.1056 -0.11574
-3.5157 -3.1423 -0.11265
-3.4885 -3.1355 -0.10572
-3.6291 -3.0913 -0.1379
-3.5698 -3.0573 -0.14991
-3.5279 -3.0792 -0.10589
-3.6225 -3.0176 -0.12833
-3.5676 -3.0327 -0.11017
-3.54 -3.0113 -0.10665
-3.7152 -2.9532 -0.11592
-3.6712 -2.9695 -0.12471
-3.6118 -2.9834 -0.11618
-3.7625 -2.9005 -0.13205
-3.729 -2.9222 -0.10359
-3.6659 -2.9238 -0.1258
-3.6435 -2.9224 -0.10489
-3.7294 -2.8838 -0.12749
-3.665 -2.8586 -0.10401
-3.8143 -2.8196 -0.12888
-3.7621 -2.826 -0.13471
-3.7272 -2.8237 -0.10384
-3.8659 -2.7683 -0.10473
-3.8457 -2.7629 -0.13625
-3.7834 -2.7731 -0.11037
-3.7372 -2.7537 -0.10599
-3.8745 -2.7193 -0.12082
-3.8176 -2.7497 -0.14977
-3.7877 -2.7096 -0.10624
-3.9166 -2.6797 -0.12901
-3.873 -2.6823 -0.12177
-3.8432 -2.6623 -0.10355
-3.7761 -2.6949 -0.10229
-3.9756 -2.6226 -0.12375
-3.9201 -2.6268 -0.12787
-3.8764 -2.6069 -0.10483
-3.8037 -2.643 -0.10552
-3.974 -2.5551 -0.13218
-3.9245 -2.5832 -0.11442
-3.8803 -2.596 -0.10231
-4.0431 -2.5041 -0.11701
-3.9685 -2.5183 -0.10316
-3.9062 -2.5442 -0.10367
-3.7021 -2.5283 -0.14916
-4.0113 -2.4857 -0.13992
-3.998 -2.4794 -0.12468
-3.9159 -2.4813 -0.1053
-3.6806 -2.4857 -0.13736
-4.1101 -2.4063 -0.12724
-4.0829 -2.4201 -0.14097
-4.0353 -2.4253 -0.11639
-3.9308 -2.43 -0.11115
-3.6794 -2.4472 -0.1169
-4.1866 -2.3397 -0.11871
-4.0214 -2.3289 -0.12703
-3.9912 -2.3269 -0.12104
2.1983 -11.468 -0.058182
2.3424 -11.433 -0.075775
2.1086 -11.373 -0.067688
2.3708 -11.397 -0.06363
2.0631 -11.324 -0.068955
2.0335 -11.279 -0.079647
2.0175 -11.168 -0.09829
1.879 -11.045 -0.06493
1.8711 -10.977 -0.065071
1.9766 -10.962 -0.059715
1.9309 -10.866 -0.054461
1.8012 -10.808 -0.058238
1.8647 -10.844 -0.079463
1.5802 -10.752 -0.075882
1.8449 -10.751 -0.08948
1.6956 -10.702 -0.060209
1.7568 -10.744 -0.053469
1.5634 -10.686 -0.072705
1.6822 -10.665 -0.061414
1.7097 -10.669 -0.067821
1.5424 -10.644 -0.060213
1.5552 -10.631 -0.059297
1.6571 -10.64 -0.094324
1.7848 -10.632 -0.095264
1.5261 -10.555 -0.091544
1.698 -10.55 -0.084733
1.5768 -10.549 -0.05208
1.6084 -10.502 -0.055712
1.491 -10.488 -0.095926
1.4544 -10.371 -0.09469
1.4216 -10.333 -0.08923
1.433 -10.273 -0.053735
1.3891 -10.215 -0.068685
1.4269 -10.235 -0.071801
1.4527 -10.235 -0.093307
1.2675 -10.161 -0.080425
1.3745 -10.175 -0.074043
1.3753 -10.138 -0.07452
1.2851 -10.069 -0.076402
1.3078 -10.081 -0.087208
1.3732 -10.051 -0.098327
1.2214 -10.023 -0.064258
1.2803 -10.041 -0.057198
1.3344 -10.027 -0.087819
1.1385 -9.9696 -0.073849
1.1695 -9.9751 -0.065434
1.2215 -9.9577 -0.085314
1.2654 -9.9512 -0.094921
1.3092 -9.9798 -0.094141
1.1568 -9.9059 -0.084251
1.2753 -9.9192 -0.097462
1.1425 -9.8948 -0.083101
1.1811 -9.8855 -0.095271
1.2301 -9.88 -0.086983
1.0793 -9.833 -0.06816
1.1398 -9.8342 -0.087393
0.99888 -9.757 -0.061391
1.0415 -9.7537 -0.056235
1.0608 -9.7711 -0.07604
1.1821 -9.7653 -0.092671
1.0306 -9.7261 -0.068877
0.97564 -9.6714 -0.068558
1.0202 -9.6625 -0.084162
1.1151 -9.6876 -0.086741
0.98672 -9.6147 -0.078601
1.0182 -9.6419 -0.086256
1.0775 -9.6095 -0.086273
0.88394 -9.5603 -0.055553
0.93134 -9.577 -0.062674
0.97956 -9.5696 -0.084325
0.92515 -9.5171 -0.08116
0.826 -9.4692 -0.059502
0.86251 -9.4671 -0.07611
0.91827 -9.4943 -0.073988
0.77421 -9.4208 -0.065946
0.82674 -9.438 -0.069822
0.87185 -9.4473 -0.079161
0.71862 -9.3665 -0.059435
0.76975 -9.3658 -0.050444
0.7213 -9.3146 -0.05489
0.7846 -9.3004 -0.074826
0.81494 -9.3236 -0.068157
0.66295 -9.2501 -0.054789
0.7172 -9.262 -0.06914
0.78929 -9.2983 -0.078538
0.80524 -9.2346 -0.071886
0.59917 -9.1717 -0.051262
0.61884 -9.1776 -0.051627
0.70059 -9.1623 -0.070728
0.63599 -9.14 -0.057779
0.6553 -9.1229 -0.068736
0.73526 -9.1473 -0.057192
0.62857 -9.0799 -0.066709
0.73202 -9.05 -0.071016
0.53641 -9.0113 -0.052822
0.5873 -9.0267 -0.059229
0.52014 -8.9596 -0.052231
0.57654 -8.9858 -0.066906
0.53726 -8.9322 -0.060238
0.50379 -8.8888 -0.063533
0.43372 -8.8017 -0.060028
0.45983 -8.8125 -0.060092
0.41682 -8.7722 -0.056843
0.46817 -8.7995 -0.054561
0.37365 -8.725 -0.055336
0.37055 -8.6867 -0.057016
0.3105 -8.6072 -0.053774
0.23288 -8.5649 -0.052142
0.29772 -8.5945 -0.053266
0.31005 -8.5823 -0.053458
0.23329 -8.5426 -0.051505
-0.19235 -8.1704 -0.099733
-0.23568 -8.1049 -0.095952
-0.28859 -8.0559 -0.093062
-0.31181 -7.9654 -0.088039
-0.3564 -7.9075 -0.08474
-0.31775 -7.9345 -0.097169
-0.37514 -7.8953 -0.094967
-0.41376 -7.8075 -0.09506
-0.38765 -7.8334 -0.080632
-0.45981 -7.7733 -0.088412
-0.44303 -7.7897 -0.078123
-0.50272 -7.7163 -0.08537
-0.47291 -7.7302 -0.085245
-0.52963 -7.6738 -0.082477
-0.56381 -7.6246 -0.079468
-0.57137 -7.5614 -0.081951
-0.66787 -7.5172 -0.063132
-0.62572 -7.5418 -0.076235
-0.59225 -7.5263 -0.080851
-0.67148 -7.4901 -0.073561
-0.60098 -7.4664 -0.081676
-0.74691 -7.4004 -0.056909
-0.68008 -7.4201 -0.075284
-0.6351 -7.4308 -0.086435
-0.73284 -7.356 -0.06673
-0.68548 -7.3825 -0.072664
-0.75973 -7.3171 -0.052558
-0.69584 -7.3215 -0.087583
-0.82915 -7.2888 -0.051047
-0.76814 -7.2963 -0.06372
-0.70751 -7.2858 -0.072305
-0.80292 -7.2357 -0.06069
-0.75159 -7.2376 -0.06983
-0.7178 -7.2316 -0.08999
-0.85769 -7.1961 -0.058749
-0.80068 -7.1971 -0.067765
-0.76213 -7.1835 -0.087648
-0.90487 -7.1486 -0.056428
-0.81849 -7.1284 -0.078122
-0.78027 -7.1139 -0.077296
-0.92849 -7.081 -0.053098
-0.87825 -7.0904 -0.062412
-0.83553 -7.0703 -0.082176
-0.95927 -7.0189 -0.050085
-0.91789 -7.0412 -0.059974
-0.87927 -7.0255 -0.080051
-0.95093 -6.9832 -0.057113
-0.90155 -6.9683 -0.070267
-0.89747 -6.9878 -0.098965
-0.96904 -6.9308 -0.061533
-0.91546 -6.9277 -0.089296
-1.02 -6.8786 -0.066185
-0.96796 -6.859 -0.079045
-0.94424 -6.8912 -0.080756
-1.079 -6.8429 -0.050366
-1.0246 -6.8194 -0.077374
-1.0653 -6.7826 -0.079822
-1.117 -6.7332 -0.095944
-1.0918 -6.7153 -0.07254
-1.0427 -6.7346 -0.080484
-1.1614 -6.6749 -0.071195
-1.1382 -6.6661 -0.077908
-1.0897 -6.6843 -0.071393
-1.1775 -6.6163 -0.072442
-1.2059 -6.5796 -0.052397
-1.1574 -6.5843 -0.073871
-1.2675 -6.5023 -0.09653
-1.2294 -6.532 -0.087837
-1.1745 -6.5106 -0.070534
-1.2344 -6.4707 -0.073279
-1.3111 -6.4484 -0.094366
-1.2757 -6.4221 -0.071268
-1.3849 -6.3936 -0.099261
-1.317 -6.3727 -0.075344
-1.2404 -6.3996 -0.072636
-1.3736 -6.3058 -0.088507
-1.3345 -6.3293 -0.062991
-1.4324 -6.2629 -0.099823
-1.3776 -6.2927 -0.086181
-1.3424 -6.2615 -0.053084
-1.5002 -6.2328 -0.098883
-1.459 -6.2194 -0.076495
-1.4149 -6.25 -0.086318
-1.3846 -6.2168 -0.063461
-1.348 -6.2493 -0.06637
-1.5358 -6.1509 -0.095812
-1.4799 -6.1602 -0.090193
-1.4243 -6.1676 -0.067572
-1.5474 -6.1362 -0.089533
-1.4746 -6.1275 -0.071186
-1.5771 -6.0699 -0.089935
-1.523 -6.0748 -0.076856
-1.6642 -6.021 -0.098972
-1.6179 -6.0118 -0.090761
-1.5794 -6.0343 -0.081341
-1.5447 -6.0225 -0.057475
-1.6767 -5.9688 -0.093582
-1.6138 -5.9851 -0.080052
-1.5653 -5.9658 -0.059613
-1.708 -5.9303 -0.095896
-1.6298 -5.9239 -0.06796
-1.7661 -5.8772 -0.09447
-1.7202 -5.8725 -0.092543
-1.6735 -5.8768 -0.065994
-1.6408 -5.8718 -0.060592
-1.7871 -5.8201 -0.089569
-1.7192 -5.8066 -0.069592
-1.6713 -5.8262 -0.059616
-1.7795 -5.7761 -0.086329
-1.7103 -5.78 -0.066776
-1.6724 -5.7746 -0.098911
-1.8297 -5.7259 -0.092819
-1.777 -5.7463 -0.081411
-1.7358 -5.7225 -0.060642
-1.8808 -5.6699 -0.090635
-1.8149 -5.6954 -0.076716
-1.7898 -5.6848 -0.072206
-1.9294 -5.6315 -0.086195
-1.8589 -5.6333 -0.094839
-1.8294 -5.625 -0.071718
-1.9616 -5.5696 -0.083899
-1.9193 -5.5824 -0.086374
-1.8724 -5.5788 -0.077417
-1.8393 -5.5704 -0.060951
-2.0121 -5.5124 -0.082383
-1.9642 -5.5187 -0.09182
-1.9216 -5.5253 -0.076173
-2.0524 -5.4511 -0.080439
-1.974 -5.4741 -0.092731
-1.9354 -5.4791 -0.06561
-2.0166 -5.4285 -0.08995
-1.9741 -5.4373 -0.069059
-2.1109 -5.3953 -0.079304
-2.0782 -5.3698 -0.082735
-2.0307 -5.3811 -0.075302
-1.9703 -5.3951 -0.06346
-2.1258 -5.3258 -0.082641
-2.0768 -5.3309 -0.070183
-2.0076 -5.3412 -0.061741
-1.9887 -5.306 -0.097526
-1.9376 -5.3482 -0.098113
-2.2453 -5.2838 -0.077672
-2.1731 -5.2589 -0.086513
-2.1254 -5.2694 -0.070363
-2.0667 -5.2818 -0.06847
-2.0119 -5.2506 -0.095517
-2.2534 -5.2109 -0.07447
-2.1712 -5.226 -0.080833
-2.1378 -5.2447 -0.050818
-2.0802 -5.2309 -0.09055
-2.3674 -5.1633 -0.075464
-2.2221 -5.1826 -0.081613
-2.182 -5.1802 -0.079521
-2.123 -5.1975 -0.063516
-2.2785 -5.1235 -0.084257
-2.2261 -5.1039 -0.05799
-2.1802 -5.1314 -0.07809
-2.1422 -5.1069 -0.092622
-2.3932 -5.0931 -0.072987
-2.3286 -5.0558 -0.08367
-2.2654 -5.0684 -0.084028
-2.2209 -5.0819 -0.079285
-2.42 -5.017 -0.084314
-2.3688 -5.0136 -0.068708
-2.3134 -5.012 -0.068321
-2.2665 -5.0427 -0.064282
-2.4593 -4.9535 -0.083015
-2.4416 -4.952 -0.068055
-2.3603 -4.964 -0.075123
-2.3229 -4.9908 -0.076292
-2.2539 -4.9989 -0.06606
-2.153 -4.9836 -0.087298
-2.4115 -4.9071 -0.055821
-2.3651 -4.9281 -0.078106
-2.3162 -4.9301 -0.067699
-2.2287 -4.9436 -0.087848
-2.5431 -4.8944 -0.068442
-2.4542 -4.8546 -0.054425
-2.4314 -4.8707 -0.076735
-2.382 -4.8688 -0.078428
-2.345 -4.8907 -0.06317
-2.2849 -4.8961 -0.087499
-2.6343 -4.8316 -0.068363
-2.5079 -4.8211 -0.078287
-2.4263 -4.8116 -0.077767
-2.3775 -4.8261 -0.061295
-2.3404 -4.8479 -0.087134
-2.5299 -4.7513 -0.076076
-2.4715 -4.7698 -0.072499
-2.4395 -4.7872 -0.060569
-2.3857 -4.7958 -0.086328
-2.3403 -4.7946 -0.098425
-2.5663 -4.7446 -0.062701
-2.5136 -4.7181 -0.068879
-2.4785 -4.7301 -0.066075
-2.4013 -4.7347 -0.084243
-2.3486 -4.7346 -0.096116
-2.6596 -4.6979 -0.077869
-2.6057 -4.674 -0.060907
-2.5868 -4.6977 -0.050452
-2.5299 -4.6815 -0.06724
-2.416 -4.6741 -0.082192
-2.3943 -4.6855 -0.095544
-2.6939 -4.6069 -0.06072
-2.6007 -4.6151 -0.072752
-2.5758 -4.6267 -0.056616
-2.5411 -4.6243 -0.073288
-2.4689 -4.621 -0.081716
-2.4204 -4.6295 -0.094075
-2.7489 -4.5587 -0.075089
-2.6266 -4.5791 -0.055591
-2.578 -4.5744 -0.071349
-2.4359 -4.5705 -0.092176
-2.7314 -4.5335 -0.05886
-2.6692 -4.5218 -0.062353
-2.6293 -4.5344 -0.076048
-2.5749 -4.5263 -0.088188
-2.5462 -4.5302 -0.082314
-2.8079 -4.4615 -0.058234
-2.7172 -4.4815 -0.071133
-2.6803 -4.4751 -0.06391
-2.6333 -4.457 -0.08053
-2.5716 -4.4765 -0.092955
-2.7684 -4.4132 -0.061024
-2.7371 -4.4261 -0.064674
-2.6924 -4.4317 -0.059055
-2.6474 -4.434 -0.080739
-2.5554 -4.4099 -0.089815
-2.8315 -4.3771 -0.053641
-2.7371 -4.3756 -0.067839
-2.6881 -4.3767 -0.086017
-2.6364 -4.3622 -0.090727
-2.9041 -4.3272 -0.063464
-2.7724 -4.3185 -0.062346
-2.727 -4.3367 -0.073958
-2.6874 -4.3071 -0.090387
-2.5625 -4.3289 -0.099004
-2.9052 -4.2688 -0.069025
-2.8586 -4.269 -0.063759
-2.8157 -4.286 -0.056035
-2.7877 -4.2763 -0.078055
-2.7206 -4.2862 -0.097081
-2.6921 -4.2671 -0.075313
-2.9915 -4.232 -0.054814
-2.8693 -4.2386 -0.061202
-2.8345 -4.2153 -0.077713
-2.7703 -4.2396 -0.096501
-2.718 -4.2474 -0.089219
-3.054 -4.1528 -0.05371
-2.9177 -4.1852 -0.066425
-2.8893 -4.1712 -0.064422
-2.8123 -4.1851 -0.095649
-2.7548 -4.1869 -0.094194
-3.0121 -4.1183 -0.066993
-2.9539 -4.1154 -0.058804
-2.9249 -4.136 -0.060897
-2.8524 -4.1384 -0.085079
-2.771 -4.1246 -0.092472
-3.095 -4.0708 -0.051941
-2.9821 -4.0715 -0.062189
-2.91 -4.0979 -0.084778
-2.8921 -4.0865 -0.07547
-2.8404 -4.0714 -0.092967
-3.0541 -4.0398 -0.065604
-3.0355 -4.0358 -0.062302
-2.9243 -4.0129 -0.09283
-2.8821 -4.0137 -0.0858
-3.1646 -3.9874 -0.051034
-3.1147 -3.9609 -0.064793
-3.0678 -3.9736 -0.058301
-3.0374 -3.9818 -0.056501
-2.9734 -3.9682 -0.084505
-3.2438 -3.9036 -0.050409
-3.1007 -3.9079 -0.056995
-3.0222 -3.9229 -0.081875
-2.9673 -3.9496 -0.087392
-3.1942 -3.8795 -0.064571
-3.1479 -3.8928 -0.063574
-3.0657 -3.8697 -0.081161
-3.0346 -3.8877 -0.073514
-2.9752 -3.8909 -0.091428
-3.1983 -3.8169 -0.062661
-3.1266 -3.8332 -0.072544
-3.0768 -3.8181 -0.072679
-3.0263 -3.8397 -0.097175
-2.9873 -3.817 -0.083766
-3.2323 -3.798 -0.063115
-3.1711 -3.7795 -0.062392
-3.0576 -3.7645 -0.090163
-3.2893 -3.7145 -0.062232
-3.2252 -3.7303 -0.061604
-3.1679 -3.725 -0.08109
-3.1203 -3.7414 -0.089087
-3.0915 -3.7128 -0.095271
-3.2752 -3.6629 -0.05679
-3.2425 -3.6567 -0.068202
-3.1983 -3.677 -0.072308
-3.1334 -3.6876 -0.084791
-3.4451 -3.6225 -0.064196
-3.2987 -3.6082 -0.059929
-3.2201 -3.6196 -0.079635
-3.165 -3.6187 -0.083815
-3.1278 -3.6485 -0.094489
-3.3531 -3.5527 -0.051398
-3.3328 -3.5826 -0.059497
-3.2595 -3.5934 -0.087776
-3.173 -3.5848 -0.094095
-3.4196 -3.54 -0.060901
-3.3197 -3.5395 -0.075424
-3.2265 -3.535 -0.088968
-3.417 -3.4988 -0.055396
-3.3526 -3.4516 -0.070778
-3.3417 -3.4805 -0.076
-3.2781 -3.4657 -0.088736
-3.5028 -3.4475 -0.06071
-3.4828 -3.4146 -0.059198
-3.4083 -3.4314 -0.065329
-3.3746 -3.4296 -0.085948
-3.3272 -3.4199 -0.091656
-3.5742 -3.3536 -0.060192
-3.4231 -3.3699 -0.074788
-3.3984 -3.3733 -0.070093
-3.3233 -3.3777 -0.095788
-3.6055 -3.3222 -0.060391
-3.504 -3.3245 -0.064363
-3.4419 -3.3148 -0.090157
-3.3804 -3.3275 -0.090729
-3.714 -3.2504 -0.061559
-3.5263 -3.2702 -0.067601
-3.4455 -3.2676 -0.091035
-3.5979 -3.2407 -0.057832
-3.5261 -3.2098 -0.069884
-3.4753 -3.2454 -0.094914
-3.4475 -3.2216 -0.090169
-3.7823 -3.1511 -0.060905
-3.658 -3.151 -0.057261
-3.5613 -3.1957 -0.062412
-3.4772 -3.1742 -0.088575
-3.6179 -3.1234 -0.07066
-3.5802 -3.1295 -0.079676
-3.5333 -3.1351 -0.082368
-3.7602 -3.0637 -0.057859
-3.7465 -3.0545 -0.057429
-3.6598 -3.0872 -0.061642
-3.6182 -3.0809 -0.097831
-3.5826 -3.0948 -0.088451
-3.5367 -3.0995 -0.082483
-3.6988 -3.0276 -0.061016
-3.641 -3.0299 -0.083181
-3.5927 -3.02 -0.085498
-3.8548 -2.9566 -0.05794
-3.814 -2.9581 -0.056993
-3.7191 -2.9586 -0.059918
-3.6782 -2.9519 -0.08258
-3.6466 -2.9675 -0.080979
-3.7053 -2.9132 -0.088637
-3.6638 -2.9398 -0.088276
-3.8798 -2.8607 -0.056542
-3.7636 -2.8725 -0.076278
-3.9874 -2.8397 -0.058962
-3.8211 -2.8464 -0.059321
-3.7876 -2.8045 -0.088129
-3.7352 -2.8433 -0.089441
-3.9926 -2.7513 -0.057326
-3.8714 -2.7601 -0.07009
-3.8342 -2.7612 -0.074332
-3.775 -2.7847 -0.093782
-4.098 -2.7235 -0.05942
-3.9172 -2.7189 -0.08111
-3.8917 -2.721 -0.05804
-3.8432 -2.7498 -0.095975
-4.0258 -2.6547 -0.055996
-3.926 -2.6565 -0.057383
-3.8818 -2.6814 -0.089877
-3.8358 -2.6726 -0.094558
-4.1093 -2.6241 -0.057314
-4.0343 -2.6463 -0.072794
-3.9479 -2.6109 -0.095936
-3.8936 -2.6316 -0.087058
-3.9753 -2.5863 -0.068769
-3.924 -2.575 -0.089067
-4.1866 -2.5078 -0.056889
-4.145 -2.5386 -0.056926
-4.0259 -2.5375 -0.068396
-3.9787 -2.5253 -0.094912
-4.0768 -2.4689 -0.075088
-4.0239 -2.4713 -0.070136
-4.1696 -2.4246 -0.054751
-4.0755 -2.4305 -0.096536
-3.9591 -2.4383 -0.093145
-3.7003 -2.4011 -0.090385
-4.1216 -2.3578 -0.060789
-4.0091 -2.3897 -0.08281
-3.9643 -2.3653 -0.091262
-3.7878 -2.3512 -0.058693
-3.709 -2.371 -0.072319
2.2145 -11.453 -0.039731
2.3804 -11.44 -0.039901
2.1197 -11.341 -0.016544
1.9902 -11.129 -0.038339
1.8985 -11.025 -0.015789
1.7674 -10.761 -0.036802
1.6825 -10.666 -0.01496
1.5006 -10.491 -0.014494
1.5724 -10.489 -0.035623
1.3748 -10.132 -0.041814
1.2477 -9.9956 -0.049833
1.2835 -9.9955 -0.013418
1.1291 -9.9035 -0.013125
1.2056 -9.9331 -0.033261
1.2009 -9.8511 -0.047637
1.112 -9.7815 -0.047859
0.98866 -9.7485 -0.044903
1.0745 -9.7384 -0.048141
0.96019 -9.6585 -0.028729
1.0431 -9.6732 -0.03928
0.80588 -9.512 -0.049327
0.91143 -9.5102 -0.04629
0.9556 -9.5479 -0.047686
0.86972 -9.4975 -0.040851
0.75456 -9.4007 -0.044475
0.82295 -9.4288 -0.044133
0.87817 -9.4247 -0.031109
0.68373 -9.3549 -0.041623
0.80968 -9.3581 -0.048314
0.70041 -9.3137 -0.047626
0.77481 -9.314 -0.024686
0.61733 -9.2992 -0.03849
0.7328 -9.2664 -0.030383
0.76799 -9.2691 -0.044227
0.63921 -9.2209 -0.039765
0.66934 -9.2036 -0.044215
0.70441 -9.201 -0.038574
0.58366 -9.1583 -0.032887
0.70395 -9.1829 -0.044782
0.51254 -9.1196 -0.03028
0.5853 -9.1396 -0.038757
0.53857 -9.0604 -0.041669
0.59422 -9.061 -0.035818
0.6306 -9.0811 -0.026795
0.46632 -9.0245 -0.026093
0.52819 -9.0222 -0.04485
0.48006 -8.9718 -0.03699
0.54165 -8.9774 -0.037316
0.42953 -8.9109 -0.021409
0.47253 -8.9251 -0.044541
0.26784 -8.8926 -0.017965
0.37153 -8.8527 -0.018332
0.43248 -8.8827 -0.038557
0.48081 -8.8544 -0.040932
0.39604 -8.8117 -0.041304
0.41597 -8.8152 -0.039518
0.45324 -8.8133 -0.028482
0.37782 -8.7759 -0.025823
0.42352 -8.7537 -0.041037
0.50003 -8.7927 -0.010595
0.16739 -8.7431 -0.010904
0.33235 -8.7162 -0.032211
0.36349 -8.7207 -0.045648
0.11811 -8.6726 -0.0075411
0.27655 -8.6805 -0.027043
0.32351 -8.6658 -0.043766
0.35762 -8.6586 -0.03965
0.056056 -8.628 -0.0048799
0.18602 -8.6251 -0.037225
0.21373 -8.6288 -0.0232
0.28521 -8.6227 -0.028568
0.30691 -8.6353 -0.039949
0.24652 -8.5854 -0.024004
0.28442 -8.5803 -0.044375
0.30419 -8.5954 -0.048057
0.16433 -8.5125 -0.025649
0.23411 -8.5241 -0.039969
0.030996 -8.4809 -0.0093735
0.12107 -8.4702 -0.021532
0.17007 -8.477 -0.036705
0.22256 -8.4853 -0.040077
0.059294 -8.4254 -0.030259
0.12483 -8.4183 -0.034391
0.18531 -8.4217 -0.040602
0.035834 -8.3932 -0.020964
0.073234 -8.3734 -0.030493
0.11415 -8.3771 -0.028423
0.024996 -8.3165 -0.0092116
0.082369 -8.3345 -0.037236
0.11272 -8.3344 -0.040928
-0.054743 -8.2984 -0.012844
-0.013396 -8.264 -0.01583
0.030973 -8.285 -0.031812
0.070842 -8.2818 -0.038205
-0.16612 -8.2001 -0.0079542
-0.11054 -8.2498 -0.010415
-0.027171 -8.228 -0.031709
0.013112 -8.2325 -0.037684
-0.063368 -8.1712 -0.02944
-0.029836 -8.174 -0.034338
0.0034233 -8.1952 -0.0091045
0.081964 -8.1728 -0.025825
-0.12482 -8.1186 -0.022461
-0.068915 -8.1381 -0.027882
-0.025027 -8.1258 -0.026002
-0.16913 -8.0526 -0.0030764
-0.11828 -8.0897 -0.027266
-0.073105 -8.0647 -0.035733
-0.018978 -8.0803 -0.035422
0.015544 -8.0704 -0.035855
-0.16356 -8.0269 -0.021525
-0.11606 -8.0199 -0.021762
-0.091222 -8.0279 -0.034467
-0.16646 -7.9696 -0.030225
-0.13338 -7.9714 -0.030055
-0.31826 -7.9077 -0.019326
-0.26991 -7.9188 -0.026477
-0.20567 -7.923 -0.014082
-0.19258 -7.9184 -0.025829
-0.27263 -7.88 -0.027646
-0.21387 -7.8727 -0.020142
-0.18991 -7.8748 -0.030427
-0.32309 -7.8203 -0.01799
-0.28642 -7.8236 -0.019231
-0.22533 -7.8236 -0.020813
-0.16714 -7.8485 -0.029169
-0.33539 -7.7702 -0.017887
-0.29098 -7.7774 -0.03086
-0.22844 -7.7972 -0.027209
-0.40051 -7.7156 -0.0016941
-0.37239 -7.7235 -0.016819
-0.32651 -7.7072 -0.021268
-0.28949 -7.7448 -0.025227
-0.45347 -7.6558 -0.0081347
-0.4188 -7.6707 -0.020246
-0.37889 -7.6678 -0.022765
-0.45714 -7.6209 -0.015268
-0.42445 -7.6174 -0.010979
-0.37991 -7.6121 -0.020919
-0.52245 -7.5589 -0.016022
-0.46378 -7.5545 -0.025473
-0.42482 -7.5714 -0.018677
-0.3732 -7.5776 -0.027773
-0.57938 -7.5001 -0.0050262
-0.51952 -7.518 -0.0096898
-0.47954 -7.503 -0.031871
-0.43429 -7.5248 -0.017079
-0.53641 -7.4562 -0.010126
-0.49513 -7.487 -0.020514
-0.41895 -7.4841 -0.016104
-0.58322 -7.4092 -0.0096511
-0.54567 -7.4419 -0.024207
-0.47536 -7.4377 -0.01688
-0.65893 -7.3742 -0.0004229
-0.61309 -7.3887 -0.013933
-0.5789 -7.3814 -0.011578
-0.52709 -7.3693 -0.016432
-0.66463 -7.3258 -0.0024445
-0.63476 -7.325 -0.011677
-0.5802 -7.3243 -0.021742
-0.71713 -7.263 -0.011947
-0.68395 -7.2578 -0.0069766
-0.6136 -7.2886 -0.007151
-0.55371 -7.252 -0.0097466
-0.84666 -7.2122 -0.047085
-0.77693 -7.2471 -0.0070107
-0.70762 -7.2425 -0.0058782
-0.68264 -7.22 -0.016391
-0.6314 -7.2161 -0.018397
-0.7655 -7.1811 -0.0066599
-0.71984 -7.1756 -0.009975
-0.60384 -7.1959 -0.0077804
-0.9533 -7.1242 -0.042573
-0.87802 -7.1486 -0.043815
-0.76414 -7.1171 -0.011005
-0.72284 -7.1412 -0.025362
-0.69993 -7.117 -0.006573
-0.9825 -7.0601 -0.039319
-0.83266 -7.0812 -0.0049497
-0.79162 -7.0829 -0.0045557
-0.74989 -7.0956 -0.0035697
-1.0341 -7.0142 -0.037027
-0.98879 -7.0066 -6.3386e-05
-0.85465 -7.0443 -0.005417
-0.82759 -7.0179 -0.0083661
-0.7894 -7.0165 -0.0063174
-0.73608 -7.0442 -0.0056732
-0.99641 -6.9632 -0.047411
-0.92419 -6.9917 -0.0021373
-0.86689 -6.9776 -0.00076256
-0.80744 -6.9831 -0.027278
-0.7893 -6.9794 -0.020642
-1.0613 -6.9494 -0.033782
-1.0472 -6.921 -0.045442
-0.97742 -6.922 -0.0048453
-0.92288 -6.9141 -0.018295
-0.88859 -6.9284 -0.01548
-0.83694 -6.9016 -0.0017284
-1.1611 -6.8541 -0.029129
-1.0892 -6.8771 -0.036798
-0.91897 -6.8808 -0.00069476
-0.86803 -6.8548 -0.00596
-1.1477 -6.8331 -0.041403
-0.9646 -6.8084 -0.025886
-0.87519 -6.8424 -0.023828
-1.2737 -6.7684 -0.025061
-1.1754 -6.7758 -0.031998
-1.1078 -6.7839 -0.047536
-1.0226 -6.7628 -0.0028513
-0.96908 -6.7743 -0.011346
-1.2221 -6.7236 -0.036356
-1.1282 -6.718 -0.044371
-1.0586 -6.717 -0.016106
-1.042 -6.7068 -0.02654
-1.2558 -6.6722 -0.020317
-1.2463 -6.6588 -0.033348
-1.1702 -6.6715 -0.042216
-1.0919 -6.689 -0.0016847
-0.9359 -6.6756 -0.01942
-1.3185 -6.6334 -0.018546
-1.2856 -6.6057 -0.030961
-1.2342 -6.6439 -0.041054
-1.1002 -6.6208 -0.022933
-1.0163 -6.605 -0.014214
-1.3353 -6.5622 -0.022112
-1.2747 -6.5964 -0.038891
-1.152 -6.5956 -0.00034665
-1.1065 -6.5716 -0.025695
-1.0125 -6.5716 -0.018968
-1.384 -6.5141 -0.012926
-1.2989 -6.5357 -0.036074
-1.2113 -6.5015 -0.048768
-1.1932 -6.5453 -0.01414
-1.4171 -6.4556 -0.017317
-1.3608 -6.499 -0.026225
-1.3225 -6.4743 -0.033242
-1.2516 -6.458 -0.04689
-1.1763 -6.4855 -0.013451
-1.0918 -6.4845 -0.012569
-1.4611 -6.4041 -0.015048
-1.3922 -6.4498 -0.032327
-1.3068 -6.4265 -0.045647
-1.2535 -6.4253 -0.024631
-1.2404 -6.4296 -0.017128
-1.1719 -6.4401 -0.018314
-1.5235 -6.3588 -0.0059169
-1.4142 -6.3875 -0.02949
-1.3237 -6.3615 -0.042727
-1.2667 -6.3807 -0.0047736
-1.5834 -6.3131 -0.0039496
-1.4775 -6.3383 -0.019272
-1.3922 -6.3424 -0.042149
-1.3082 -6.3436 -0.011984
-1.2422 -6.3436 -0.017895
-1.1452 -6.338 -0.024377
-1.5113 -6.2831 -0.016904
-1.4951 -6.2926 -0.025396
-1.4307 -6.2957 -0.040198
-1.3659 -6.2511 -0.010978
-1.3098 -6.2671 -0.020625
-1.2798 -6.2862 -0.020247
-1.578 -6.2249 -0.012343
-1.5391 -6.2462 -0.023455
-1.4448 -6.2299 -0.037298
-1.3369 -6.2198 -0.012042
-1.6127 -6.1883 -0.01308
-1.4932 -6.1755 -0.042596
-1.4213 -6.1581 -0.0099755
-1.3811 -6.1677 -0.017117
-1.6362 -6.1251 -0.010372
-1.5754 -6.1123 -0.025114
-1.5221 -6.123 -0.040429
-1.4117 -6.1433 -0.018957
-1.3752 -6.129 -0.013555
-1.703 -6.0848 -0.0089168
-1.6218 -6.0696 -0.023448
-1.4245 -6.0703 -0.022409
-1.7334 -6.0257 -0.0064704
-1.691 -6.0448 -0.01504
-1.5925 -6.0127 -0.043574
-1.5408 -6.0461 -0.044698
-1.4635 -6.0344 -0.013437
-1.4262 -6.0013 -0.016494
-1.772 -5.9706 -0.0042578
-1.6881 -5.9708 -0.011728
-1.6284 -5.9803 -0.03482
-1.5277 -5.9802 -0.0080565
-1.4716 -5.9987 -0.012915
-1.7234 -5.9162 -0.01725
-1.6667 -5.9345 -0.03308
-1.5929 -5.9239 -0.012185
-1.5122 -5.9059 -0.010417
-1.4973 -5.9403 -0.016194
-1.8109 -5.8941 -0.0090017
-1.7558 -5.8887 -0.00060633
-1.7427 -5.8544 -0.022465
-1.6687 -5.8732 -0.022053
-1.6234 -5.8826 -0.021022
-1.5641 -5.8689 -0.015865
