-0.805323 0.926382 -0.369533
-0.781632 0.928468 -0.361216
-0.785308 0.938323 -0.368487
-0.737023 0.935417 -0.366493
-0.7698 0.948557 -0.363054
-0.718327 0.941662 -0.364836
-0.769111 0.954288 -0.36887
-0.711983 0.954843 -0.360171
-0.704813 0.955683 -0.365888
-0.751479 0.960953 -0.362504
-0.752564 0.970007 -0.36925
-0.993517 0.730958 -0.35835
-1.01034 0.742752 -0.35612
-0.976441 0.740398 -0.356137
-0.989625 0.752213 -0.353581
-0.96634 0.755924 -0.356667
-0.995718 0.762471 -0.351908
-0.977418 0.769179 -0.353977
-0.953282 0.768682 -0.356104
-0.958589 0.774244 -0.357145
-0.877196 0.774239 -0.355663
-0.964942 0.785974 -0.354385
-0.942801 0.783924 -0.356635
-1.00106 0.790418 -0.353859
-0.924904 0.792611 -0.354434
-0.952194 0.802607 -0.354796
-0.908664 0.801944 -0.352771
-0.89598 0.800996 -0.357904
-0.93773 0.817714 -0.354716
-0.96236 0.821844 -0.352196
-0.871274 0.828403 -0.358393
-0.943202 0.837864 -0.351576
-0.898666 0.835568 -0.356255
-0.778125 0.839993 -0.356179
-0.861882 0.845436 -0.359997
-0.883914 0.85039 -0.356165
-0.843188 0.852281 -0.357798
-0.872497 0.869545 -0.35753
-0.868081 0.864105 -0.3505
-0.830887 0.86598 -0.358318
-0.907502 0.87154 -0.351223
-0.851527 0.878614 -0.355514
-0.813129 0.873819 -0.356654
-0.799232 0.88564 -0.356632
-0.774077 0.883967 -0.351711
-0.834515 0.891445 -0.354947
-0.767019 0.904414 -0.35496
-0.798755 0.915038 -0.353345
-0.755028 0.918615 -0.356028
-0.782392 0.928726 -0.353275
-0.738197 0.926507 -0.354923
-0.763408 0.939135 -0.352245
-0.724499 0.938929 -0.355448
-0.70636 0.944725 -0.353802
-0.750461 0.956744 -0.353635
-0.73131 0.966447 -0.352603
-0.992605 0.73324 -0.346539
-1.02799 0.741811 -0.342193
-1.02412 0.7525 -0.340243
-1.0154 0.750128 -0.348685
-1.03056 0.762889 -0.347288
-1.00161 0.769362 -0.343255
-0.984155 0.785968 -0.34264
-0.97005 0.794573 -0.349433
-0.968133 0.803424 -0.342459
-0.906988 0.815842 -0.348761
-0.871388 0.816149 -0.347815
-0.95564 0.825121 -0.343553
-0.861635 0.831489 -0.348895
-0.875559 0.841689 -0.34561
-0.8476 0.842589 -0.348337
-0.792758 0.843121 -0.347559
-0.857633 0.850831 -0.342062
-0.833589 0.85331 -0.347779
-0.895473 0.865783 -0.340093
-0.843066 0.863883 -0.342013
-0.817828 0.862672 -0.346675
-0.847567 0.872191 -0.348482
-0.830658 0.879821 -0.34295
-0.808359 0.878974 -0.348303
-0.882543 0.880856 -0.348954
-0.829809 0.88268 -0.347444
-0.809269 0.885169 -0.34044
-0.785613 0.886464 -0.343261
-0.861735 0.899695 -0.340221
-0.814303 0.896002 -0.347383
-0.772807 0.891846 -0.344449
-0.760463 0.904514 -0.344996
-0.781186 0.912835 -0.34134
-0.745529 0.914009 -0.344431
-0.781319 0.920411 -0.346778
-0.764367 0.923371 -0.340814
-0.732819 0.926312 -0.344979
-0.765489 0.932875 -0.346726
-0.747409 0.933645 -0.340281
-0.675076 0.931212 -0.345619
-0.749306 0.945077 -0.346678
-0.732513 0.946781 -0.340742
-0.723352 0.943096 -0.347156
-0.705512 0.948995 -0.34551
-0.731739 0.955642 -0.346138
-0.717048 0.964287 -0.343893
-1.03507 0.753536 -0.331349
-1.01638 0.751409 -0.335223
-1.00772 0.769156 -0.339646
-1.01252 0.777854 -0.338126
-0.992558 0.787072 -0.339481
-0.977043 0.80474 -0.339322
-0.863981 0.801138 -0.3384
-0.958603 0.819341 -0.338313
-0.888018 0.814922 -0.339585
-0.872068 0.829134 -0.335374
-0.912977 0.843576 -0.334851
-0.857981 0.842213 -0.335332
-0.89772 0.857512 -0.334026
-0.846389 0.85801 -0.336291
-0.775148 0.855952 -0.338418
-0.829342 0.867783 -0.335252
-0.877635 0.875828 -0.336276
-0.810998 0.875797 -0.333725
-0.859449 0.883751 -0.332055
-0.842586 0.899473 -0.331936
-0.796057 0.893361 -0.337295
-0.781765 0.899692 -0.333655
-0.820275 0.909101 -0.330114
-0.768984 0.914505 -0.334621
-0.8171 0.920509 -0.336979
-0.804469 0.925542 -0.330437
-0.751448 0.922992 -0.33359
-0.732648 0.929594 -0.332072
-0.673288 0.922566 -0.33515
-0.798892 0.935706 -0.336855
-0.718397 0.942084 -0.332543
-0.78045 0.950622 -0.336738
-0.763262 0.966662 -0.337051
-0.751717 0.969137 -0.330154
-0.708149 0.96093 -0.334993
-0.695092 0.960959 -0.338206
-0.742062 0.977947 -0.336101
-0.871357 0.828698 -0.326902
-0.860609 0.844338 -0.327883
-0.895626 0.855062 -0.329599
-0.888175 0.854896 -0.321281
-0.843173 0.852557 -0.326357
-0.876937 0.868223 -0.328632
-0.869965 0.867068 -0.320307
-0.828284 0.863364 -0.32583
-0.856765 0.87966 -0.327237
-0.815646 0.877017 -0.32631
-0.809218 0.875759 -0.328617
-0.79922 0.885906 -0.325281
-0.842064 0.896294 -0.327579
-0.784978 0.897669 -0.32526
-0.820278 0.905653 -0.325752
-0.768168 0.906177 -0.324243
-0.750279 0.912725 -0.322724
-0.803836 0.920326 -0.32567
-0.73814 0.926744 -0.323702
-0.783792 0.93395 -0.326889
-0.722176 0.936032 -0.323191
-0.767605 0.946091 -0.324656
-0.708494 0.948112 -0.323668
-0.767007 0.951893 -0.329388
-0.749292 0.958448 -0.324157
-0.871275 0.81631 -0.317275
-0.896122 0.833162 -0.319172
-0.865628 0.835773 -0.319774
-0.848835 0.844134 -0.318253
-0.8883 0.856026 -0.317457
-0.837448 0.857689 -0.318748
-0.866727 0.862864 -0.315174
-0.820299 0.865666 -0.317227
-0.911612 0.876056 -0.31123
-0.85019 0.875272 -0.314665
-0.804388 0.874782 -0.316204
-0.852962 0.880371 -0.319785
-0.831556 0.886596 -0.31561
-0.793593 0.889351 -0.317206
-0.893025 0.892756 -0.311062
-0.777584 0.897873 -0.316184
-0.820448 0.903602 -0.314984
-0.814811 0.901588 -0.317441
-0.798425 0.909226 -0.312703
-0.76272 0.907621 -0.315678
-0.798841 0.915354 -0.317368
-0.748938 0.918651 -0.31567
-0.684908 0.919681 -0.312527
-0.783711 0.923617 -0.313091
-0.732638 0.926412 -0.314649
-0.672723 0.928067 -0.314162
-0.784947 0.932057 -0.318173
-0.764173 0.931471 -0.311712
-0.759803 0.934866 -0.315038
-0.717431 0.935445 -0.314145
-0.748092 0.943675 -0.311663
-0.70421 0.947519 -0.314634
-0.746961 0.952454 -0.316287
-0.731622 0.955784 -0.311616
-0.716089 0.969238 -0.312014
-0.734864 0.971448 -0.317987
-0.850246 0.787173 -0.300208
-0.870395 0.827605 -0.302355
-0.904122 0.832079 -0.304253
-0.870648 0.836006 -0.308145
-0.865571 0.850722 -0.305472
-0.858767 0.852305 -0.308988
-0.846096 0.857921 -0.303631
-0.923607 0.860405 -0.303706
-0.844195 0.865376 -0.30894
-0.829055 0.867675 -0.302683
-0.90622 0.87716 -0.303547
-0.827952 0.876895 -0.308446
-0.813147 0.87863 -0.302195
-0.886039 0.890805 -0.302637
-0.81401 0.89115 -0.308848
-0.798739 0.89057 -0.30216
-0.781389 0.899531 -0.301226
-0.866913 0.905549 -0.302108
-0.79645 0.900536 -0.307911
-0.779779 0.911305 -0.307413
-0.768702 0.914378 -0.302092
-0.685127 0.912177 -0.307203
-0.847656 0.92001 -0.301586
-0.762968 0.921812 -0.306928
-0.752218 0.924374 -0.301611
-0.829685 0.935478 -0.301455
-0.750621 0.938326 -0.30824
-0.734555 0.93256 -0.300682
-0.80872 0.947812 -0.300574
-0.730078 0.943604 -0.306409
-0.720284 0.945086 -0.301103
-0.714365 0.954672 -0.306376
-0.706733 0.959169 -0.301974
-0.788884 0.96135 -0.300083
-0.699165 0.96738 -0.306792
-0.773937 0.98063 -0.3011
-0.870832 0.828464 -0.295383
-0.922006 0.849981 -0.295366
-0.861434 0.845525 -0.296717
-0.929275 0.855953 -0.299897
-0.84275 0.852323 -0.294878
-0.908273 0.867929 -0.29713
-0.831691 0.867473 -0.295761
-0.886253 0.877845 -0.294001
-0.811372 0.872334 -0.293461
-0.88786 0.880756 -0.297322
-0.799989 0.887114 -0.294346
-0.872686 0.897931 -0.297588
-0.86864 0.892238 -0.293511
-0.784505 0.897375 -0.293871
-0.850346 0.908071 -0.295928
-0.848345 0.903293 -0.292252
-0.831778 0.918563 -0.292164
-0.771309 0.910448 -0.294304
-0.753333 0.91702 -0.292925
-0.836929 0.928036 -0.296968
-0.739974 0.929531 -0.29336
-0.814804 0.935349 -0.293707
-0.794248 0.943686 -0.290847
-0.725101 0.940414 -0.293342
-0.796788 0.952358 -0.295231
-0.711366 0.952554 -0.293779
-0.691787 0.956564 -0.291951
-0.776566 0.963916 -0.294373
-0.75873 0.970464 -0.290315
-0.761128 0.981327 -0.295047
-0.745385 0.982614 -0.297974
-0.73446 0.984685 -0.292286
-0.860894 0.806456 -0.283501
-0.866431 0.836851 -0.289432
-0.911006 0.848007 -0.28782
-0.853651 0.849391 -0.289419
-0.889123 0.857031 -0.283224
-0.838191 0.858764 -0.288495
-0.897276 0.864381 -0.288128
-0.875832 0.873154 -0.285006
-0.853457 0.879165 -0.281498
-0.824951 0.871047 -0.288484
-0.808938 0.880209 -0.28756
-0.793 0.888964 -0.286627
-0.861808 0.890113 -0.28677
-0.836802 0.891179 -0.281033
-0.776983 0.897456 -0.285705
-0.84332 0.901631 -0.285905
-0.818645 0.901622 -0.280176
-0.760896 0.905674 -0.284783
-0.822069 0.910077 -0.284258
-0.805281 0.917805 -0.280913
-0.747134 0.916686 -0.284775
-0.808452 0.926925 -0.284969
-0.734403 0.929039 -0.285223
-0.790625 0.93924 -0.284502
-0.789141 0.930744 -0.280858
-0.7723 0.94654 -0.282229
-0.722629 0.94278 -0.286127
-0.774732 0.954939 -0.28999
-0.707023 0.951779 -0.285664
-0.76035 0.960363 -0.281953
-0.755986 0.96442 -0.283987
-0.740168 0.967893 -0.280709
-0.737943 0.975765 -0.283531
-0.725685 0.983105 -0.281459
-0.879445 0.817338 -0.276122
-0.882981 0.841127 -0.274318
-0.884629 0.851145 -0.279528
-0.868747 0.854374 -0.274276
-0.86982 0.864744 -0.279476
-0.852986 0.865947 -0.273825
-0.912418 0.876971 -0.270476
-0.848607 0.870624 -0.277413
-0.834552 0.87431 -0.272566
-0.834794 0.88518 -0.277762
-0.819879 0.886864 -0.272528
-0.81955 0.898049 -0.277717
-0.802832 0.895852 -0.271683
-0.801872 0.907498 -0.27687
-0.793923 0.915617 -0.273676
-0.771415 0.91822 -0.271216
-0.684502 0.911638 -0.27203
-0.788655 0.922961 -0.277632
-0.769303 0.930465 -0.276393
-0.759581 0.934544 -0.272392
-0.754527 0.943941 -0.276752
-0.742828 0.944387 -0.271962
-0.738447 0.955637 -0.276717
-0.729568 0.95866 -0.272742
-0.712534 0.968036 -0.272305
-0.696271 0.963378 -0.273035
-0.724778 0.970037 -0.277487
-0.906191 0.834291 -0.264703
-0.882091 0.840297 -0.267958
-0.870809 0.84153 -0.26066
-0.920191 0.856941 -0.263277
-0.867156 0.85185 -0.267528
-0.857967 0.854138 -0.260647
-0.850952 0.86157 -0.266686
-0.846445 0.867838 -0.261042
-0.833261 0.869535 -0.265432
-0.908328 0.87938 -0.264463
-0.885691 0.887502 -0.265645
-0.821879 0.884773 -0.266225
-0.806533 0.895214 -0.2658
-0.862275 0.900467 -0.261488
-0.792157 0.907083 -0.265778
-0.846923 0.919307 -0.262017
-0.773967 0.914124 -0.264528
-0.822578 0.927241 -0.260221
-0.759491 0.925371 -0.264508
-0.747185 0.93956 -0.265306
-0.679331 0.931372 -0.269347
-0.809338 0.948643 -0.261427
-0.73216 0.950545 -0.265289
-0.789404 0.962165 -0.260977
-0.717161 0.961189 -0.265272
-0.769592 0.975233 -0.260533
-0.877871 0.823274 -0.259017
-0.922881 0.849791 -0.259746
-0.916824 0.845173 -0.256729
-0.904362 0.841577 -0.250462
-0.901187 0.860965 -0.257441
-0.894918 0.86209 -0.251762
-0.884305 0.877206 -0.258128
-0.876874 0.871486 -0.252718
-0.827787 0.874456 -0.259385
-0.859589 0.882924 -0.254028
-0.814313 0.886579 -0.259374
-0.865195 0.89004 -0.257332
-0.844772 0.899615 -0.25428
-0.799548 0.896871 -0.258948
-0.850858 0.908763 -0.257888
-0.779636 0.900938 -0.256887
-0.82565 0.913697 -0.254627
-0.77211 0.919818 -0.258929
-0.806437 0.923689 -0.252742
-0.75694 0.929444 -0.258513
-0.672198 0.927958 -0.254213
-0.812382 0.935031 -0.256648
-0.740457 0.937287 -0.257683
-0.792039 0.941329 -0.253348
-0.726237 0.947991 -0.257675
-0.795931 0.951559 -0.256894
-0.771214 0.95101 -0.252251
-0.77832 0.966194 -0.256798
-0.75532 0.966505 -0.252525
-0.722916 0.969769 -0.251229
-0.713981 0.961794 -0.25849
-0.760371 0.980543 -0.25671
-0.744673 0.98185 -0.258766
-0.869985 0.807757 -0.240347
-0.876217 0.834173 -0.240538
-0.877976 0.844261 -0.24476
-0.886606 0.854567 -0.248403
-0.86467 0.854721 -0.24314
-0.87157 0.868545 -0.248335
-0.848173 0.865578 -0.242559
-0.8536 0.879542 -0.247563
-0.833234 0.873013 -0.240415
-0.855424 0.883399 -0.249504
-0.832245 0.882464 -0.244256
-0.838344 0.894659 -0.248285
-0.81828 0.896806 -0.244567
-0.820991 0.909076 -0.248652
-0.817482 0.900473 -0.246029
-0.798085 0.903155 -0.243098
-0.802912 0.91514 -0.246323
-0.780153 0.912385 -0.242344
-0.803566 0.921419 -0.248232
-0.788079 0.929606 -0.24662
-0.774902 0.923053 -0.240633
-0.787186 0.935196 -0.248162
-0.767623 0.932537 -0.244269
-0.750983 0.939453 -0.24298
-0.769223 0.947168 -0.247749
-0.749856 0.946583 -0.244758
-0.732732 0.947911 -0.242232
-0.716911 0.958992 -0.2422
-0.753792 0.96183 -0.248034
-0.735655 0.961907 -0.245416
-0.698398 0.966857 -0.241456
-0.734539 0.971546 -0.247283
-0.722368 0.978683 -0.246427
-0.875048 0.833333 -0.235221
-0.866726 0.844621 -0.233097
-0.85772 0.854165 -0.230627
-0.849429 0.860201 -0.235533
-0.834425 0.871078 -0.235145
-0.816911 0.881437 -0.237029
-0.79777 0.889906 -0.238544
-0.802562 0.890759 -0.23401
-0.786782 0.90379 -0.236608
-0.770106 0.909527 -0.232868
-0.754502 0.919163 -0.232486
-0.753637 0.926834 -0.238804
-0.739949 0.93013 -0.232467
-0.723914 0.939415 -0.232087
-0.680458 0.933226 -0.236128
-0.740412 0.941363 -0.239492
-0.72387 0.950797 -0.239104
-0.712446 0.95478 -0.23317
-0.710209 0.964943 -0.239796
-0.894786 0.815393 -0.221511
-0.873368 0.819154 -0.228088
-0.916612 0.846795 -0.222428
-0.91077 0.868144 -0.228453
-0.898077 0.862033 -0.221976
-0.842158 0.863565 -0.229883
-0.883092 0.874497 -0.226295
-0.824869 0.871538 -0.228773
-0.883326 0.881325 -0.222402
-0.857782 0.888714 -0.220536
-0.812742 0.885094 -0.229128
-0.795429 0.892385 -0.228019
-0.84391 0.908985 -0.221257
-0.784376 0.906914 -0.228742
-0.766883 0.913678 -0.227634
-0.82731 0.925907 -0.221409
-0.752998 0.924775 -0.227625
-0.738971 0.935666 -0.227617
-0.722431 0.943197 -0.226877
-0.786833 0.951746 -0.220305
-0.710256 0.956963 -0.227602
-0.769516 0.967873 -0.220477
-0.915027 0.836832 -0.218835
-0.898586 0.830233 -0.213144
-0.878932 0.839942 -0.211615
-0.894451 0.848314 -0.217342
-0.886351 0.84879 -0.213662
-0.901188 0.854984 -0.219502
-0.890715 0.852076 -0.214562
-0.864545 0.854491 -0.21181
-0.87351 0.862155 -0.215108
-0.847659 0.865766 -0.211289
-0.887453 0.874165 -0.219946
-0.861175 0.878543 -0.216841
-0.855493 0.877605 -0.213485
-0.829577 0.873719 -0.21022
-0.862904 0.8813 -0.21808
-0.835749 0.885166 -0.213132
-0.820053 0.897708 -0.212182
-0.850052 0.901462 -0.218832
-0.825902 0.906095 -0.216067
-0.818583 0.900321 -0.212118
-0.801762 0.907837 -0.211509
-0.832814 0.917033 -0.218719
-0.801469 0.912281 -0.212978
-0.805261 0.920235 -0.216286
-0.783638 0.92491 -0.212602
-0.800215 0.930592 -0.219273
-0.78778 0.935162 -0.216185
-0.767577 0.939507 -0.212686
-0.752417 0.935288 -0.210013
-0.770309 0.949659 -0.216091
-0.751404 0.942405 -0.210738
-0.753042 0.954496 -0.211846
-0.749791 0.953061 -0.213692
-0.73611 0.956166 -0.210992
-0.72175 0.959713 -0.210261
-0.753845 0.965448 -0.216288
-0.741103 0.969762 -0.218082
-0.739888 0.9721 -0.212697
-0.866671 0.799125 -0.206062
-0.873518 0.8266 -0.205632
-0.857791 0.837416 -0.205126
-0.840716 0.845725 -0.202173
-0.843284 0.850079 -0.207067
-0.828517 0.859424 -0.202472
-0.830258 0.864245 -0.207337
-0.812079 0.868629 -0.201812
-0.814446 0.875226 -0.206989
-0.811924 0.883475 -0.209551
-0.797892 0.88228 -0.204058
-0.780348 0.887602 -0.200809
-0.793122 0.891254 -0.208579
-0.778947 0.891469 -0.205352
-0.76608 0.899085 -0.200789
-0.778982 0.905067 -0.208844
-0.766461 0.906337 -0.205937
-0.779635 0.913014 -0.209923
-0.759878 0.912408 -0.207875
-0.761429 0.922531 -0.206275
-0.758358 0.927357 -0.207791
-0.740942 0.925898 -0.20171
-0.732449 0.924402 -0.204938
-0.697134 0.929449 -0.206906
-0.736449 0.946951 -0.209978
-0.727375 0.94411 -0.204873
-0.713076 0.954494 -0.205714
-0.70715 0.95428 -0.206448
-0.698793 0.961095 -0.208362
-0.867902 0.809332 -0.19673
-0.868093 0.834462 -0.199594
-0.852599 0.844205 -0.198949
-0.834458 0.850654 -0.197653
-0.815988 0.857059 -0.196356
-0.806705 0.873438 -0.197314
-0.922314 0.880779 -0.190298
-0.792115 0.883617 -0.196978
-0.773592 0.88904 -0.195683
-0.760074 0.90023 -0.195674
-0.750069 0.915871 -0.196634
-0.740969 0.932987 -0.1979
-0.724457 0.94054 -0.19726
-0.704242 0.943135 -0.195642
-0.913217 0.834957 -0.185702
-0.923302 0.845602 -0.183462
-0.911753 0.843415 -0.18087
-0.892511 0.855067 -0.181725
-0.913987 0.867758 -0.18432
-0.902381 0.864071 -0.181808
-0.877643 0.868978 -0.181666
-0.912565 0.877219 -0.185903
-0.890919 0.877821 -0.182918
-0.886464 0.875657 -0.181981
-0.871374 0.889332 -0.182409
-0.8635 0.884587 -0.181269
-0.894599 0.890568 -0.187101
-0.879872 0.899381 -0.183775
-0.846471 0.896907 -0.181125
-0.873018 0.905747 -0.184883
-0.851079 0.900403 -0.18156
-0.848292 0.901505 -0.180264
-0.825876 0.902601 -0.180316
-0.858693 0.911038 -0.182922
-0.849764 0.91581 -0.183771
-0.833075 0.914225 -0.18122
-0.812059 0.914913 -0.180832
-0.837408 0.922316 -0.182067
-0.816491 0.929093 -0.181137
-0.793877 0.924318 -0.180257
-0.83699 0.937385 -0.18461
-0.822685 0.940532 -0.182453
-0.81475 0.948307 -0.183755
-0.800734 0.945392 -0.18131
-0.802412 0.95269 -0.181856
-0.792313 0.958813 -0.182918
-0.781199 0.956747 -0.180742
-0.780918 0.962795 -0.18103
-0.745686 0.969646 -0.18002
-0.77259 0.971937 -0.182563
-0.765455 0.980289 -0.181424
-0.87119 0.803889 -0.174614
-0.883616 0.824868 -0.170869
-0.884017 0.837538 -0.178614
-0.888251 0.842253 -0.176513
-0.879424 0.846066 -0.172504
-0.874863 0.855969 -0.178068
-0.862367 0.854528 -0.171673
-0.856163 0.863778 -0.177081
-0.856296 0.874073 -0.173032
-0.843196 0.876118 -0.175616
-0.834784 0.877849 -0.171373
-0.844735 0.881191 -0.179298
-0.836266 0.881791 -0.179588
-0.823877 0.882527 -0.17451
-0.824993 0.891212 -0.175179
-0.807136 0.896279 -0.174212
-0.795474 0.906415 -0.174465
-0.828176 0.911457 -0.179424
-0.805865 0.913076 -0.179188
-0.794561 0.912901 -0.174722
-0.780928 0.918118 -0.174445
-0.8133 0.92692 -0.179607
-0.792319 0.929145 -0.179646
-0.77876 0.923075 -0.174433
-0.759763 0.92949 -0.176977
-0.794231 0.937775 -0.179023
-0.774511 0.931882 -0.179417
-0.765591 0.932186 -0.172733
-0.775636 0.945035 -0.179018
-0.755949 0.945153 -0.177607
-0.746778 0.942666 -0.173852
-0.733149 0.946855 -0.173569
-0.743516 0.957194 -0.179611
-0.732463 0.954424 -0.173972
-0.719326 0.958465 -0.175711
-0.760505 0.965424 -0.179406
-0.720472 0.960755 -0.174098
-0.718328 0.966939 -0.174224
-0.700054 0.963313 -0.176903
-0.74264 0.97602 -0.178577
-0.727126 0.973483 -0.179516
-0.884819 0.818048 -0.144481
-0.880407 0.82201 -0.141127
-0.917541 0.8395 -0.146847
-0.880947 0.835077 -0.144986
-0.923332 0.845777 -0.146896
-0.913141 0.844929 -0.146173
-0.884859 0.845343 -0.145702
-0.867464 0.84805 -0.14496
-0.929677 0.85039 -0.146448
-0.905048 0.858977 -0.146386
-0.895427 0.857516 -0.147854
-0.866232 0.854077 -0.145789
-0.930054 0.860537 -0.147182
-0.913256 0.86718 -0.14631
-0.897651 0.861028 -0.148703
-0.875776 0.867871 -0.147561
-0.854566 0.862259 -0.146102
-0.847786 0.865335 -0.142005
-0.834923 0.867149 -0.144007
-0.825035 0.867504 -0.14039
-0.913144 0.870779 -0.148593
-0.909886 0.874533 -0.146635
-0.886105 0.87463 -0.145679
-0.853767 0.87168 -0.147979
-0.838014 0.873696 -0.146781
-0.820964 0.879437 -0.143984
-0.811663 0.879591 -0.140379
-0.888234 0.886735 -0.145892
-0.868627 0.886646 -0.145568
-0.859552 0.881586 -0.146071
-0.836121 0.88182 -0.147498
-0.823329 0.886297 -0.146742
-0.81572 0.888585 -0.146576
-0.801516 0.887215 -0.144219
-0.897269 0.890499 -0.148813
-0.87448 0.893805 -0.145256
-0.844557 0.895284 -0.145478
-0.820257 0.898406 -0.145873
-0.869197 0.901538 -0.145551
-0.853427 0.905383 -0.144534
-0.803101 0.904126 -0.146966
-0.79129 0.904571 -0.144973
-0.784712 0.902887 -0.140359
-0.848579 0.914521 -0.145026
-0.831776 0.912939 -0.144772
-0.828819 0.912586 -0.144063
-0.803171 0.910051 -0.145592
-0.786308 0.914969 -0.146708
-0.774838 0.917763 -0.145969
-0.82935 0.928505 -0.144692
-0.811489 0.926358 -0.14387
-0.809897 0.921809 -0.143872
-0.786989 0.9244 -0.145513
-0.763545 0.92195 -0.144614
-0.759471 0.92942 -0.145937
-0.792272 0.935664 -0.14386
-0.766631 0.933569 -0.143382
-0.809737 0.942375 -0.144373
-0.794702 0.943739 -0.143218
-0.77419 0.948062 -0.143586
-0.753815 0.944982 -0.145014
-0.74763 0.944181 -0.143907
-0.774594 0.95527 -0.14273
-0.763 0.950241 -0.148165
-0.735992 0.954369 -0.14484
-0.715598 0.954135 -0.143167
-0.709229 0.957985 -0.145193
-0.693161 0.953386 -0.143906
-0.797339 0.965244 -0.145226
-0.755665 0.963247 -0.142914
-0.743223 0.966496 -0.146245
-0.720138 0.965814 -0.141467
-0.768836 0.977223 -0.145285
-0.745189 0.975577 -0.142681
-0.734863 0.972369 -0.14571
-0.721837 0.972046 -0.145342
-0.778729 0.980011 -0.145113
-0.795676 0.888335 -0.139916
-0.76722 0.909621 -0.139671
-0.691307 0.942317 -0.137846
-0.722809 0.963292 -0.139975
-0.885567 0.818966 -0.111769
-0.880979 0.822851 -0.112005
-0.883022 0.836985 -0.115958
-0.87883 0.833113 -0.114526
-0.912565 0.844501 -0.111058
-0.88245 0.844372 -0.115754
-0.874041 0.84124 -0.112717
-0.867093 0.848125 -0.115206
-0.857038 0.849605 -0.112166
-0.888714 0.851887 -0.113883
-0.851845 0.858639 -0.114474
-0.898923 0.86093 -0.111125
-0.874176 0.865622 -0.115193
-0.854498 0.8633 -0.115873
-0.845595 0.863317 -0.11233
-0.881938 0.874667 -0.110877
-0.855762 0.875533 -0.114707
-0.837074 0.871318 -0.114877
-0.828247 0.871298 -0.11178
-0.86067 0.883751 -0.110143
-0.838586 0.886638 -0.114391
-0.822701 0.883769 -0.114847
-0.816137 0.884915 -0.111945
-0.844972 0.898203 -0.110062
-0.822464 0.89907 -0.114258
-0.803526 0.892535 -0.113442
-0.802482 0.903581 -0.11483
-0.791841 0.905496 -0.114521
-0.785192 0.903774 -0.111377
-0.805097 0.912598 -0.112722
-0.788101 0.917527 -0.114956
-0.775781 0.915706 -0.11432
-0.768933 0.912047 -0.111005
-0.786564 0.92243 -0.112332
-0.770016 0.926555 -0.114573
-0.761698 0.924 -0.113629
-0.757561 0.92677 -0.112982
-0.769323 0.933386 -0.112118
-0.752944 0.936874 -0.114369
-0.742634 0.934852 -0.112944
-0.753223 0.945678 -0.112068
-0.728154 0.946287 -0.112984
-0.737964 0.95482 -0.113341
-0.714191 0.955273 -0.112186
-0.725663 0.966249 -0.114986
-0.710804 0.960609 -0.114516
-0.723529 0.974726 -0.112471
-0.92313 0.844923 -0.109039
-0.919768 0.841924 -0.107372
-0.925428 0.855848 -0.107665
-0.903038 0.85717 -0.109569
-0.912721 0.86675 -0.108405
-0.914035 0.871807 -0.108506
-0.909403 0.874083 -0.107659
-0.890423 0.877555 -0.107654
-0.885675 0.871842 -0.109314
-0.887751 0.886288 -0.107056
-0.86832 0.886922 -0.10799
-0.896843 0.890071 -0.108486
-0.865996 0.898112 -0.106461
-0.846452 0.895789 -0.108333
-0.854175 0.906384 -0.107108
-0.8481 0.914066 -0.106321
-0.83255 0.913977 -0.108559
-0.828847 0.912846 -0.108033
-0.827525 0.926513 -0.105895
-0.81161 0.924674 -0.10887
-0.81568 0.932748 -0.106426
-0.7935 0.937387 -0.109505
-0.807921 0.940356 -0.105626
-0.795843 0.942692 -0.107053
-0.771751 0.944776 -0.108792
-0.789428 0.955455 -0.105506
-0.776639 0.954864 -0.106736
-0.769624 0.968507 -0.105243
-0.757959 0.96272 -0.10826
-0.739818 0.968696 -0.103809
-0.757492 0.970651 -0.105533
-0.740699 0.974016 -0.108994
-0.728311 0.970655 -0.104083
-0.876477 0.824797 -0.0836172
-0.896946 0.830739 -0.0803026
-0.883133 0.837352 -0.085042
-0.876991 0.841721 -0.0836637
-0.865428 0.846407 -0.0847467
-0.857099 0.849956 -0.0832431
-0.887537 0.850825 -0.0807197
-0.868048 0.85598 -0.0830092
-0.851921 0.858989 -0.0847215
-0.853241 0.862179 -0.0848282
-0.84429 0.862225 -0.0832314
-0.832905 0.865419 -0.0841664
-0.855903 0.875924 -0.0822654
-0.837443 0.873505 -0.0846598
-0.829643 0.873122 -0.0830836
-0.814917 0.878493 -0.0833364
-0.835436 0.883247 -0.0817119
-0.82015 0.883042 -0.0843637
-0.800827 0.886945 -0.083767
-0.819064 0.893031 -0.0833444
-0.797493 0.891044 -0.0825195
-0.786897 0.896793 -0.0837007
-0.801302 0.90241 -0.0830495
-0.784784 0.901782 -0.0831397
-0.772487 0.908379 -0.0836801
-0.782116 0.910085 -0.0826307
-0.77418 0.91751 -0.08413
-0.768955 0.912387 -0.0823642
-0.764681 0.924061 -0.0833845
-0.753968 0.922364 -0.0829017
-0.75302 0.937262 -0.0828055
-0.743488 0.934135 -0.0831271
-0.743298 0.940599 -0.0840673
-0.73695 0.94892 -0.0827701
-0.726615 0.944513 -0.0832033
-0.707717 0.94932 -0.0817894
-0.717431 0.956123 -0.083176
-0.709702 0.959334 -0.0837541
-0.912908 0.836117 -0.0731229
-0.915435 0.842043 -0.0733546
-0.894758 0.849173 -0.0727938
-0.903098 0.85723 -0.0702503
-0.89215 0.8542 -0.0758806
-0.876355 0.865774 -0.0741321
-0.890723 0.877913 -0.0704409
-0.864612 0.885392 -0.0743765
-0.846551 0.89616 -0.0725037
-0.839801 0.892659 -0.0751566
-0.821032 0.899775 -0.0799723
-0.823724 0.906965 -0.0750786
-0.802644 0.909885 -0.0796706
-0.829989 0.91141 -0.0724157
-0.810766 0.923242 -0.0721197
-0.807624 0.920868 -0.0750052
-0.787906 0.924381 -0.0797361
-0.792484 0.936446 -0.0719296
-0.787252 0.930071 -0.0745853
-0.768275 0.932212 -0.0793195
-0.771798 0.945631 -0.0730761
-0.755741 0.94927 -0.0796339
-0.752834 0.955176 -0.0743395
-0.7264 0.955306 -0.0733607
-0.69785 0.951692 -0.072146
-0.757174 0.96322 -0.0716764
-0.739142 0.961504 -0.0795865
-0.714343 0.962068 -0.0786933
-0.89406 0.791787 -0.0658987
-0.920108 0.842247 -0.0680234
-0.922825 0.853296 -0.0690437
-0.901414 0.865764 -0.068574
-0.914366 0.872152 -0.0687373
-0.894456 0.887426 -0.0684689
-0.886631 0.885156 -0.068628
-0.870114 0.889385 -0.0699971
-0.86896 0.901431 -0.0684805
-0.853002 0.905268 -0.0698782
-0.848343 0.914417 -0.0681353
-0.834476 0.919443 -0.0696566
-0.829018 0.928377 -0.0679023
-0.811896 0.928584 -0.0691241
-0.717162 0.93876 -0.0642966
-0.811893 0.945319 -0.0678786
-0.791769 0.940588 -0.0688184
-0.789568 0.95581 -0.0674515
-0.745249 0.955387 -0.0676779
-0.77927 0.961354 -0.0691386
-0.770993 0.970452 -0.0673404
-0.729647 0.972613 -0.0678067
-0.863294 0.796472 -0.050257
-0.876356 0.818888 -0.0540366
-0.877187 0.83164 -0.0544117
-0.8559 0.836661 -0.0539091
-0.876638 0.841586 -0.0533074
-0.849747 0.842657 -0.0539223
-0.864867 0.855224 -0.0519137
-0.845854 0.857048 -0.0542325
-0.843608 0.860906 -0.0514654
-0.831486 0.865527 -0.0540572
-0.831275 0.876941 -0.0515774
-0.826543 0.87003 -0.0540777
-0.813321 0.873337 -0.0537727
-0.80649 0.874665 -0.0536197
-0.816047 0.889752 -0.0515322
-0.802021 0.886356 -0.0544253
-0.801405 0.89024 -0.0533995
-0.797111 0.894214 -0.0525644
-0.785237 0.895055 -0.0542316
-0.778402 0.896296 -0.0535105
-0.784707 0.906876 -0.0523285
-0.766572 0.905518 -0.0537701
-0.770105 0.912558 -0.0532488
-0.75282 0.913069 -0.0539335
-0.76606 0.921972 -0.05117
-0.755956 0.925344 -0.0535711
-0.735969 0.920817 -0.0537421
-0.750246 0.933839 -0.0511326
-0.737672 0.931691 -0.0532977
-0.723543 0.934888 -0.0538975
-0.734285 0.945474 -0.0510971
-0.7223 0.941717 -0.0532351
-0.70627 0.944838 -0.0534948
-0.720816 0.959889 -0.0512227
-0.703709 0.950859 -0.0528024
-0.893749 0.827691 -0.0473849
-0.884446 0.847758 -0.0476168
-0.918159 0.850302 -0.0421468
-0.889036 0.851157 -0.0413515
-0.861407 0.852918 -0.0470945
-0.869387 0.861859 -0.0410513
-0.847621 0.868205 -0.0471037
-0.851047 0.873688 -0.0408262
-0.835014 0.884651 -0.0471916
-0.838056 0.890949 -0.0408859
-0.815477 0.893466 -0.0469053
-0.821983 0.905235 -0.040808
-0.798506 0.905055 -0.0467717
-0.799437 0.911511 -0.0403865
-0.783782 0.919482 -0.0467917
-0.784394 0.926776 -0.0403857
-0.76417 0.927236 -0.0465138
-0.768988 0.941816 -0.0403891
-0.754119 0.947448 -0.0468401
-0.751214 0.953359 -0.0402573
-0.732897 0.953201 -0.0464922
-0.716268 0.965101 -0.0464478
-0.915514 0.838677 -0.0373865
-0.920509 0.841718 -0.0334196
-0.894368 0.848952 -0.0370205
-0.921139 0.851577 -0.0307036
-0.898474 0.852722 -0.0330409
-0.910712 0.875549 -0.030827
-0.890358 0.877652 -0.0332721
-0.889796 0.876291 -0.0374418
-0.856882 0.874881 -0.0365607
-0.88769 0.886318 -0.0304475
-0.869756 0.889107 -0.0329696
-0.86458 0.896649 -0.0300775
-0.848924 0.898857 -0.0368612
-0.849999 0.902067 -0.0327292
-0.828272 0.909706 -0.0365774
-0.827397 0.911691 -0.0323773
-0.81028 0.926808 -0.0322704
-0.807734 0.920007 -0.036301
-0.793416 0.937729 -0.036352
-0.792671 0.941826 -0.0321688
-0.773852 0.9519 -0.0340844
-0.752961 0.958299 -0.0358875
-0.744805 0.955076 -0.0313907
-0.729647 0.95984 -0.0399206
-0.711589 0.970757 -0.0397971
-0.895068 0.792823 -0.0291632
-0.861096 0.79006 -0.0243902
-0.885106 0.833897 -0.0254505
-0.9211 0.843333 -0.0287737
-0.890162 0.84523 -0.0233584
-0.885483 0.848279 -0.0202572
-0.878504 0.84654 -0.0256536
-0.871421 0.853534 -0.0242888
-0.855298 0.855866 -0.0253074
-0.874798 0.866353 -0.0203043
-0.858742 0.868788 -0.0232014
-0.847153 0.865824 -0.0254584
-0.91262 0.870321 -0.0289701
-0.857317 0.876661 -0.0201885
-0.840106 0.877145 -0.0230542
-0.834697 0.873666 -0.025262
-0.892715 0.885577 -0.028749
-0.838196 0.885303 -0.0200421
-0.824773 0.887076 -0.0240774
-0.813613 0.882973 -0.0252228
-0.804506 0.8946 -0.0243607
-0.842631 0.908053 -0.0297711
-0.791972 0.906511 -0.0239084
-0.786559 0.906335 -0.0252026
-0.775121 0.916515 -0.0250729
-0.824773 0.923489 -0.0296401
-0.776696 0.921319 -0.0228028
-0.765412 0.929781 -0.0250152
-0.703416 0.920796 -0.0270306
-0.802597 0.934199 -0.0293489
-0.761268 0.932518 -0.0240203
-0.741094 0.935116 -0.0250487
-0.784126 0.949221 -0.0292302
-0.750695 0.940909 -0.0249966
-0.74682 0.946089 -0.0227763
-0.732126 0.947093 -0.0248597
-0.728093 0.947438 -0.025083
-0.731282 0.957216 -0.0227474
-0.712386 0.956473 -0.0250335
-0.766902 0.965379 -0.0291743
-0.717949 0.965452 -0.0238384
-0.859635 0.792891 -0.0193455
-0.897088 0.831264 -0.0146187
-0.891841 0.85572 -0.0147502
-0.879517 0.872739 -0.0147392
-0.861428 0.883828 -0.0146139
-0.840724 0.891426 -0.0144353
-0.821676 0.896702 -0.0199637
-0.82628 0.906445 -0.0144021
-0.810274 0.91971 -0.0143436
-0.80767 0.910794 -0.0199528
-0.791721 0.929643 -0.0142311
-0.789511 0.920115 -0.0198454
-0.773713 0.932327 -0.0198057
-0.776842 0.94384 -0.0142066
-0.755387 0.941089 -0.0197024
-0.761702 0.957827 -0.0141848
-0.740438 0.954426 -0.0197
-0.743799 0.968537 -0.0141092
-0.725711 0.967292 -0.0196991
-0.729286 0.983869 -0.0141206
-0.897733 0.791495 -0.000911636
-0.927563 0.850314 -0.0013885
-0.918694 0.850962 -0.00721524
-0.904924 0.863389 -0.00416114
-0.891588 0.878317 -0.00112474
-0.882243 0.875522 -0.0069397
-0.87109 0.889905 -0.000971382
-0.866448 0.890464 -0.0068532
-0.854795 0.905344 -0.000879103
-0.847856 0.90202 -0.00672531
-0.835451 0.917765 -0.000753263
-0.828983 0.913448 -0.00660124
-0.807646 0.921352 -0.00643465
-0.817432 0.931179 -0.000651725
-0.793704 0.938271 -0.00640991
-0.797711 0.94296 -0.000537705
-0.773179 0.947223 -0.00627361
-0.779406 0.955793 -0.000445627
-0.758945 0.963555 -0.00625687
-0.763374 0.971439 -0.000395888
-0.743226 0.978115 -0.00622123
-0.892642 0.790458 0.00789724
-0.869597 0.798825 0.00424676
-0.885857 0.834938 0.00389185
-0.894325 0.849846 0.0076847
-0.879973 0.848296 0.00341081
-0.931022 0.851988 0.00375644
-0.872801 0.855288 0.00605975
-0.864243 0.858171 0.00341582
-0.929915 0.860579 0.00768046
-0.911622 0.865954 0.00392118
-0.857379 0.866702 0.00608449
-0.84857 0.867618 0.0034201
-0.912489 0.877479 0.00784099
-0.839624 0.873835 0.00446245
-0.828432 0.872671 0.00341276
-0.893575 0.881063 0.00406696
-0.889461 0.88828 0.00803397
-0.842757 0.880434 0.00774691
-0.822197 0.884319 0.00610418
-0.879737 0.899826 0.00416249
-0.821617 0.892285 0.00344273
-0.812777 0.899745 0.00451552
-0.79889 0.893576 0.00342644
-0.871579 0.90457 0.00817997
-0.85446 0.907051 0.00436373
-0.810786 0.902161 0.00780018
-0.794526 0.907052 0.00451662
-0.78658 0.906675 0.0034401
-0.795589 0.914349 0.00783539
-0.771543 0.916507 0.0034456
-0.853556 0.920614 0.00832046
-0.835731 0.921215 0.00448962
-0.781965 0.924892 0.00621562
-0.758856 0.929241 0.00345829
-0.831608 0.931637 0.00847906
-0.815863 0.933424 0.00462342
-0.765733 0.934878 0.00623284
-0.745321 0.937517 0.0040087
-0.813129 0.947071 0.00860503
-0.798128 0.948533 0.00472553
-0.746755 0.946338 0.00791038
-0.719353 0.942102 0.00920148
-0.791937 0.959127 0.0087421
-0.73205 0.953036 0.00533345
-0.779158 0.961651 0.00483429
-0.717075 0.960694 0.00404064
-0.774577 0.975404 0.00884505
-0.758814 0.972918 0.00494979
-0.719758 0.975101 0.00801077
-0.870663 0.804594 0.0112145
-0.897081 0.831424 0.0180651
-0.925565 0.848121 0.0107743
-0.892749 0.856562 0.0149452
-0.921096 0.879617 0.0108887
-0.880119 0.872479 0.011689
-0.879506 0.872905 0.0183627
-0.85997 0.879891 0.0116856
-0.861317 0.883983 0.0183944
-0.840837 0.888582 0.0116933
-0.89714 0.890525 0.0110829
-0.841923 0.893087 0.0184048
-0.824587 0.902547 0.0150873
-0.806325 0.909458 0.0117416
-0.806465 0.915249 0.0184716
-0.791766 0.926645 0.0151712
-0.775209 0.9383 0.0152063
-0.757679 0.944528 0.0118472
-0.758032 0.953202 0.0186295
-0.743855 0.959523 0.0119105
-0.740241 0.963865 0.0186591
-0.726753 0.969154 0.0119297
-0.715348 0.964417 0.0185759
-0.886214 0.789667 0.0266212
-0.918533 0.851028 0.0274642
-0.900618 0.863289 0.0275103
-0.884972 0.878506 0.0276006
-0.863602 0.887617 0.0275945
-0.845118 0.899144 0.0276296
-0.828922 0.913538 0.027708
-0.814032 0.929057 0.0278054
-0.792315 0.936826 0.0277826
-0.77556 0.950437 0.0278495
-0.758784 0.963636 0.0279118
-0.736998 0.97021 0.0278753
-0.903439 0.793743 0.039968
-0.899062 0.79287 0.0339347
-0.860755 0.79018 0.0328021
-0.875612 0.82455 0.0349911
-0.878622 0.834227 0.0339959
-0.865433 0.834008 0.0320151
-0.858329 0.839906 0.0337568
-0.924527 0.847575 0.0348146
-0.863248 0.845348 0.0381927
-0.844647 0.845123 0.0327507
-0.846252 0.855336 0.0381197
-0.837187 0.855833 0.0319385
-0.913262 0.86779 0.0350023
-0.827575 0.861868 0.0358174
-0.819925 0.863669 0.0317995
-0.809467 0.867841 0.0335091
-0.892889 0.879763 0.0350225
-0.805272 0.874196 0.0317606
-0.795641 0.879615 0.0335311
-0.817183 0.880577 0.0381973
-0.791966 0.885845 0.0317708
-0.872386 0.891382 0.0350372
-0.80141 0.891021 0.0381761
-0.787792 0.899079 0.033819
-0.777195 0.895777 0.0317297
-0.856087 0.90684 0.0351297
-0.785211 0.901519 0.0381534
-0.765899 0.90126 0.0335199
-0.75978 0.902376 0.0315884
-0.833889 0.916298 0.0351051
-0.771246 0.91492 0.0382445
-0.744829 0.911801 0.0315462
-0.814554 0.928191 0.0351311
-0.756834 0.923444 0.0360413
-0.734074 0.92294 0.0325528
-0.738133 0.934694 0.0381921
-0.720539 0.937971 0.0317138
-0.702359 0.930328 0.0344134
-0.80011 0.946018 0.0352667
-0.725434 0.943997 0.0360333
-0.705692 0.944971 0.0326039
-0.780483 0.95735 0.0352835
-0.704688 0.953295 0.0381329
-0.76193 0.969906 0.0353234
-0.899532 0.797314 0.0447546
-0.863255 0.7971 0.0417383
-0.880877 0.843819 0.0431619
-0.932308 0.853307 0.0411153
-0.860776 0.85145 0.042974
-0.933999 0.86471 0.0462311
-0.914289 0.868704 0.0412198
-0.844823 0.863056 0.0429623
-0.912344 0.877336 0.0462816
-0.827314 0.873069 0.042891
-0.896134 0.883836 0.0413191
-0.810938 0.884309 0.0428758
-0.896039 0.895452 0.0464728
-0.875407 0.895386 0.0413431
-0.874053 0.907388 0.0465083
-0.803353 0.906007 0.0432788
-0.776658 0.904275 0.0427797
-0.858266 0.911375 0.0414635
-0.848008 0.914423 0.0464239
-0.838251 0.924147 0.0415119
-0.764748 0.921077 0.042999
-0.746562 0.9297 0.0429157
-0.70464 0.922784 0.0454193
-0.83396 0.934528 0.0466687
-0.818274 0.93638 0.0415522
-0.811644 0.94539 0.0466824
-0.731749 0.942905 0.0430116
-0.800528 0.951527 0.0416549
-0.714897 0.952363 0.0429833
-0.794168 0.96209 0.046839
-0.783942 0.967766 0.0417833
-0.771875 0.972099 0.0468377
-0.75727 0.971267 0.0416369
-0.874083 0.778155 0.0592089
-0.888118 0.822461 0.050359
-0.882995 0.846796 0.050877
-0.928143 0.850807 0.05027
-0.865334 0.857805 0.050817
-0.918116 0.876424 0.0506857
-0.848804 0.870188 0.05082
-0.832267 0.882139 0.0508191
-0.811438 0.889385 0.0506223
-0.89819 0.891779 0.0508155
-0.803372 0.911735 0.0510656
-0.784845 0.921552 0.0509933
-0.768898 0.934082 0.0510455
-0.753883 0.947963 0.0511588
-0.702211 0.946008 0.0502161
-0.736207 0.95857 0.0511423
-0.889619 0.784187 0.0683469
-0.865064 0.792427 0.0670432
-0.882441 0.812118 0.0631899
-0.884254 0.827661 0.061327
-0.902269 0.835108 0.0613745
-0.883243 0.838941 0.0668412
-0.861726 0.830573 0.0606618
-0.866994 0.849371 0.0640423
-0.854594 0.848782 0.061061
-0.890205 0.852834 0.0616036
-0.869071 0.851908 0.0695104
-0.846651 0.855329 0.0662505
-0.836316 0.855198 0.0606857
-0.869108 0.862115 0.0614146
-0.852111 0.875403 0.0614308
-0.841034 0.875895 0.0641917
-0.834799 0.871771 0.0691763
-0.829859 0.874825 0.061181
-0.817731 0.877686 0.0635155
-0.809736 0.879509 0.060708
-0.832426 0.885277 0.0613025
-0.822634 0.887371 0.0694216
-0.815133 0.897998 0.0613098
-0.806564 0.895286 0.0665475
-0.796347 0.891235 0.0607182
-0.791978 0.904505 0.063759
-0.786028 0.90484 0.0649548
-0.79783 0.910257 0.061313
-0.776984 0.919053 0.0665973
-0.767791 0.912538 0.0606395
-0.693124 0.918726 0.0679999
-0.781465 0.923956 0.0613828
-0.762923 0.927469 0.0637992
-0.753886 0.923889 0.064747
-0.761179 0.932743 0.0612395
-0.739898 0.934557 0.0606565
-0.711171 0.936176 0.0603765
-0.750622 0.941778 0.0640178
-0.743857 0.943813 0.0652891
-0.726514 0.943391 0.0620031
-0.704199 0.946161 0.0600893
-0.727543 0.952958 0.0693061
-0.707214 0.957337 0.0689168
-0.720494 0.96352 0.0640525
-0.895383 0.786244 0.0754936
-0.883114 0.81787 0.0741305
-0.912212 0.835961 0.0703767
-0.922883 0.84427 0.0779998
-0.882591 0.845869 0.0752467
-0.896689 0.851451 0.074034
-0.863857 0.855025 0.0749795
-0.877646 0.864746 0.0739936
-0.845149 0.863672 0.074708
-0.855047 0.873505 0.0701595
-0.832802 0.879753 0.0749684
-0.86502 0.884517 0.0779127
-0.842173 0.893068 0.0740596
-0.817315 0.89526 0.0725261
-0.803674 0.906642 0.0751646
-0.830777 0.915958 0.0781453
-0.802044 0.914101 0.0701957
-0.804344 0.920529 0.0776923
-0.787195 0.924662 0.0727928
-0.769847 0.928075 0.0750314
-0.784251 0.932423 0.0776345
-0.764419 0.938271 0.0701207
-0.755057 0.941595 0.0751755
-0.734179 0.94234 0.0768537
-0.774361 0.956202 0.0782091
-0.752458 0.95839 0.0704876
-0.737837 0.951692 0.0751045
-0.721895 0.962846 0.0751368
-0.890253 0.788148 0.0811509
-0.902408 0.837248 0.0841923
-0.927221 0.849893 0.0897582
-0.917671 0.848227 0.0838797
-0.887384 0.851638 0.084264
-0.839108 0.858436 0.0896149
-0.907818 0.865202 0.0898446
-0.897657 0.862066 0.0838719
-0.868389 0.861262 0.0840012
-0.824513 0.869266 0.0894826
-0.885317 0.877414 0.0897518
-0.878886 0.877048 0.0839405
-0.853064 0.875157 0.0840676
-0.835104 0.885662 0.0839081
-0.813749 0.884324 0.089781
-0.861244 0.893217 0.0840863
-0.796379 0.891576 0.0893609
-0.835355 0.900071 0.0837219
-0.821983 0.902116 0.0841915
-0.782808 0.903105 0.0893707
-0.81887 0.916935 0.0839354
-0.804887 0.913812 0.0841395
-0.767813 0.912879 0.0892361
-0.788844 0.926782 0.0841952
-0.753947 0.923996 0.0892449
-0.799398 0.930682 0.0839774
-0.771495 0.937768 0.0841351
-0.7387 0.93332 0.0891103
-0.783408 0.948777 0.0842637
-0.754097 0.948507 0.0840737
-0.722151 0.940803 0.0888314
-0.71354 0.959466 0.0895551
-0.76741 0.966518 0.0845437
-0.737502 0.960722 0.084121
-0.882931 0.786829 0.0930061
-0.856627 0.784032 0.0959925
-0.872571 0.802495 0.0915986
-0.882878 0.826596 0.090151
-0.87912 0.83523 0.0936713
-0.908177 0.84108 0.0963439
-0.871647 0.840787 0.0903076
-0.893192 0.856049 0.0964348
-0.869673 0.85252 0.0941367
-0.858804 0.853415 0.0903199
-0.876224 0.869711 0.0964072
-0.854713 0.863693 0.0940152
-0.835689 0.870175 0.0934545
-0.856322 0.880166 0.0961443
-0.822956 0.883991 0.0936248
-0.819985 0.88447 0.0999434
-0.840634 0.894568 0.0962254
-0.805232 0.893941 0.0965934
-0.821884 0.905902 0.096071
-0.79194 0.904762 0.093376
-0.786644 0.903938 0.099564
-0.690829 0.909516 0.0917259
-0.804458 0.91827 0.0960267
-0.774418 0.916118 0.096501
-0.755596 0.918228 0.0925375
-0.787972 0.932067 0.096097
-0.758542 0.93061 0.0999301
-0.74342 0.932418 0.0928489
-0.772549 0.947183 0.0962813
-0.743024 0.942051 0.0999607
-0.727318 0.941743 0.0927196
-0.727502 0.95312 0.0999894
-0.716997 0.95886 0.0933223
-0.755879 0.960363 0.0963439
-0.904377 0.798022 0.104478
-0.873245 0.807884 0.10444
-0.915231 0.838957 0.10676
-0.884549 0.840223 0.100532
-0.901205 0.856246 0.106984
-0.886487 0.85029 0.107546
-0.871674 0.854985 0.100724
-0.867733 0.859524 0.107139
-0.851911 0.862129 0.100166
-0.883846 0.870912 0.106966
-0.854294 0.874224 0.107342
-0.838636 0.876445 0.100356
-0.867576 0.886723 0.107063
-0.833918 0.881323 0.106778
-0.848531 0.89919 0.106913
-0.816151 0.891137 0.106517
-0.799657 0.902028 0.106406
-0.827883 0.910047 0.106637
-0.785377 0.915977 0.106602
-0.811309 0.924865 0.106719
-0.768449 0.926551 0.106488
-0.792924 0.938082 0.106675
-0.751383 0.936853 0.106372
-0.775944 0.952397 0.106749
-0.736453 0.95011 0.10656
-0.756197 0.963338 0.106574
-0.731259 0.967839 0.105907
-0.720611 0.961279 0.106593
-0.71718 0.972323 0.100768
-0.911522 0.801447 0.112923
-0.907263 0.804995 0.119688
-0.883865 0.827833 0.119307
-0.900715 0.835748 0.117035
-0.939068 0.846769 0.110032
-0.927213 0.848537 0.115827
-0.872623 0.842043 0.119504
-0.854216 0.848965 0.118761
-0.891281 0.855922 0.117734
-0.907924 0.862485 0.115713
-0.874907 0.868535 0.117646
-0.844149 0.86408 0.11915
-0.885653 0.873239 0.11534
-0.826783 0.872043 0.118601
-0.866443 0.886101 0.11521
-0.858144 0.881051 0.117556
-0.810691 0.881184 0.118224
-0.79207 0.886887 0.117479
-0.840068 0.891623 0.117305
-0.778572 0.898349 0.117489
-0.848067 0.900505 0.115202
-0.823115 0.903607 0.117209
-0.692986 0.907714 0.116809
-0.833448 0.91908 0.115569
-0.803323 0.912198 0.116795
-0.766162 0.911163 0.117692
-0.711886 0.914366 0.110758
-0.788577 0.92672 0.117008
-0.813491 0.931248 0.115421
-0.771228 0.937706 0.116903
-0.759713 0.93163 0.118834
-0.737101 0.931557 0.117515
-0.719394 0.937425 0.116951
-0.696367 0.938394 0.113574
-0.798366 0.949389 0.115777
-0.75383 0.948446 0.116795
-0.711983 0.957654 0.118102
-0.778141 0.961002 0.115619
-0.737235 0.960661 0.116842
-0.885536 0.789452 0.126514
-0.861718 0.789453 0.126392
-0.887623 0.817781 0.122865
-0.877254 0.833553 0.123275
-0.862339 0.84501 0.123115
-0.923295 0.85392 0.122831
-0.850179 0.85902 0.123327
-0.905399 0.866452 0.126203
-0.832504 0.866923 0.12277
-0.884261 0.882904 0.122752
-0.821113 0.882197 0.123188
-0.803268 0.889566 0.122629
-0.863781 0.896173 0.122638
-0.791468 0.904483 0.123035
-0.848489 0.915129 0.123038
-0.776932 0.916137 0.123055
-0.829155 0.929132 0.123039
-0.762405 0.927435 0.123075
-0.704975 0.928508 0.126034
-0.744151 0.933734 0.122512
-0.809441 0.94301 0.123034
-0.729194 0.944683 0.12253
-0.788265 0.955024 0.12289
-0.716541 0.958554 0.122931
-0.772144 0.972834 0.123265
-0.899548 0.79366 0.139149
-0.887874 0.823232 0.137716
-0.883928 0.839828 0.131533
-0.91203 0.845066 0.131313
-0.884471 0.848349 0.139364
-0.931188 0.854116 0.130037
-0.866332 0.853855 0.134999
-0.898384 0.861511 0.131567
-0.851293 0.861726 0.131026
-0.87726 0.870942 0.131006
-0.852296 0.872216 0.139068
-0.836761 0.874533 0.131066
-0.894478 0.88773 0.130381
-0.860036 0.88435 0.130928
-0.834557 0.882327 0.138719
-0.823234 0.888627 0.131304
-0.8429 0.897316 0.130846
-0.816786 0.892161 0.138357
-0.804932 0.896114 0.130749
-0.822808 0.907195 0.130434
-0.800287 0.903072 0.138207
-0.787374 0.905098 0.130392
-0.773399 0.918536 0.130616
-0.806707 0.921108 0.130508
-0.79091 0.923288 0.139246
-0.769074 0.927614 0.138288
-0.754435 0.925394 0.130066
-0.786339 0.93032 0.130088
-0.750764 0.936321 0.137928
-0.738938 0.936759 0.130096
-0.769699 0.943862 0.130155
-0.75182 0.955428 0.130053
-0.738206 0.952821 0.138555
-0.725774 0.95104 0.130516
-0.719761 0.953361 0.139749
-0.721126 0.962366 0.138393
-0.709933 0.961983 0.130544
-0.905119 0.79552 0.148565
-0.875344 0.794957 0.145251
-0.887197 0.83135 0.149276
-0.920453 0.844116 0.143434
-0.874496 0.844203 0.149289
-0.860215 0.855436 0.149058
-0.904965 0.86009 0.143539
-0.844604 0.864856 0.148602
-0.886154 0.873403 0.143307
-0.829916 0.875762 0.14838
-0.865673 0.88493 0.1429
-0.836696 0.887977 0.149878
-0.815097 0.886434 0.148147
-0.842644 0.893018 0.142162
-0.819756 0.899903 0.149741
-0.797706 0.893725 0.147456
-0.828741 0.911178 0.142576
-0.80137 0.910019 0.149394
-0.791749 0.914409 0.148879
-0.80952 0.923027 0.142332
-0.786533 0.92449 0.149647
-0.77785 0.925866 0.148888
-0.789924 0.934716 0.142074
-0.770577 0.937059 0.1497
-0.763789 0.937126 0.148897
-0.726175 0.932674 0.147966
-0.770332 0.945895 0.141809
-0.750712 0.944581 0.149145
-0.747145 0.945026 0.148438
-0.732925 0.95551 0.148679
-0.754523 0.961443 0.142046
-0.901005 0.798821 0.156285
-0.899168 0.829667 0.154921
-0.902705 0.837987 0.150428
-0.92809 0.849436 0.15335
-0.891462 0.848453 0.155905
-0.885033 0.849519 0.150095
-0.869578 0.852913 0.154501
-0.847915 0.856775 0.153086
-0.910086 0.864786 0.153314
-0.887803 0.875593 0.152754
-0.879519 0.873749 0.151586
-0.853352 0.875948 0.150022
-0.840834 0.876521 0.154304
-0.817601 0.878379 0.15266
-0.867209 0.887048 0.152358
-0.848828 0.901472 0.152304
-0.812544 0.900921 0.15435
-0.795551 0.909805 0.153898
-0.836832 0.923028 0.15311
-0.809013 0.926221 0.15183
-0.780942 0.921515 0.153919
-0.790149 0.939732 0.151759
-0.766333 0.932869 0.153939
-0.69447 0.939578 0.158305
-0.750377 0.942427 0.15372
-0.769961 0.95121 0.151516
-0.738775 0.9583 0.154449
-0.71795 0.96091 0.153271
-0.888993 0.792901 0.160441
-0.886982 0.815633 0.161041
-0.911118 0.844291 0.165952
-0.884206 0.840339 0.163027
-0.930441 0.853318 0.169786
-0.921189 0.851851 0.161021
-0.896121 0.859319 0.166044
-0.872606 0.856541 0.16355
-0.910926 0.868676 0.169779
-0.898321 0.862863 0.160473
-0.881834 0.875913 0.166346
-0.859463 0.871139 0.163842
-0.840912 0.879574 0.163151
-0.892426 0.885445 0.169949
-0.886261 0.885165 0.161333
-0.857789 0.882092 0.165184
-0.867126 0.899967 0.161302
-0.83808 0.892098 0.164636
-0.824759 0.890685 0.162949
-0.80635 0.898186 0.162253
-0.824572 0.909384 0.16513
-0.845162 0.91146 0.16091
-0.791271 0.910321 0.162288
-0.823349 0.922393 0.160509
-0.805806 0.920288 0.164787
-0.776041 0.922242 0.162322
-0.786763 0.931046 0.164441
-0.761796 0.935527 0.162595
-0.807477 0.940808 0.160989
-0.771344 0.946142 0.164711
-0.74268 0.94218 0.161903
-0.787641 0.954375 0.160931
-0.752143 0.956155 0.164355
-0.728279 0.954876 0.162172
-0.766607 0.965868 0.160686
-0.905841 0.79958 0.175282
-0.901836 0.837938 0.172271
-0.885772 0.830243 0.178463
-0.871685 0.841663 0.178192
-0.85608 0.851444 0.177637
-0.839175 0.859364 0.176808
-0.905345 0.860554 0.179971
-0.895512 0.860342 0.173803
-0.882217 0.869614 0.179005
-0.876521 0.869704 0.173115
-0.853737 0.874111 0.171695
-0.827239 0.873127 0.177103
-0.864614 0.883985 0.178885
-0.809834 0.880808 0.176263
-0.845432 0.895572 0.175725
-0.796415 0.892533 0.176273
-0.825442 0.905243 0.175122
-0.781561 0.902543 0.175999
-0.812918 0.918956 0.172806
-0.766587 0.912317 0.175734
-0.808469 0.922056 0.178076
-0.792228 0.925266 0.171874
-0.751491 0.921857 0.175459
-0.773921 0.934366 0.171416
-0.737485 0.932729 0.175467
-0.799207 0.945842 0.179444
-0.773122 0.94951 0.178018
-0.757971 0.946364 0.171454
-0.722146 0.941809 0.175191
-0.752271 0.958897 0.177441
-0.706532 0.950779 0.174915
-0.748694 0.967801 0.172962
-0.726011 0.965547 0.173751
-0.863339 0.791562 0.187127
-0.914118 0.804049 0.186261
-0.886497 0.817207 0.182752
-0.922281 0.845952 0.180074
-0.909716 0.845317 0.185257
-0.88443 0.841471 0.185062
-0.903266 0.858045 0.189803
-0.893239 0.858399 0.185083
-0.868047 0.851598 0.184515
-0.872802 0.866678 0.184152
-0.851846 0.861322 0.183967
-0.831488 0.86631 0.182567
-0.886632 0.874467 0.189934
-0.864406 0.88623 0.187296
-0.818771 0.880046 0.182878
-0.845454 0.89805 0.186934
-0.817215 0.897132 0.1826
-0.806061 0.893488 0.183187
-0.792941 0.90689 0.183495
-0.827692 0.912953 0.18898
-0.777139 0.917009 0.183229
-0.711565 0.914428 0.181246
-0.812733 0.92411 0.184908
-0.761395 0.926741 0.182962
-0.813085 0.931083 0.189523
-0.793969 0.934083 0.184458
-0.794101 0.944656 0.189401
-0.779079 0.948327 0.184769
-0.750256 0.942583 0.183831
-0.730533 0.947196 0.182711
-0.775141 0.957749 0.189283
-0.759081 0.955995 0.184065
-0.743547 0.969903 0.18436
-0.720099 0.964319 0.183865
-0.911066 0.808795 0.19519
-0.909061 0.812246 0.197969
-0.886656 0.843197 0.194967
-0.93109 0.85246 0.191415
-0.868381 0.852161 0.194139
-0.856623 0.868176 0.194762
-0.838085 0.876564 0.19393
-0.886347 0.885311 0.199884
-0.818173 0.883103 0.192816
-0.864496 0.897158 0.199368
-0.803643 0.895114 0.192852
-0.787329 0.905655 0.192596
-0.773356 0.919084 0.19292
-0.825922 0.925595 0.199184
-0.759124 0.93232 0.193243
-0.811278 0.945581 0.199982
-0.744731 0.945379 0.193564
-0.727977 0.954843 0.193302
-0.713201 0.967471 0.19362
-0.876434 0.796517 0.203044
-0.882995 0.823286 0.204092
-0.865628 0.835856 0.206347
-0.916682 0.849897 0.202145
-0.850105 0.845561 0.205712
-0.92688 0.857657 0.200468
-0.885619 0.850038 0.204449
-0.836005 0.85629 0.20539
-0.898767 0.862172 0.201732
-0.868145 0.860734 0.203925
-0.848136 0.868022 0.202801
-0.821452 0.867081 0.205077
-0.912235 0.870124 0.209948
