-1.4165 1.0569 3.9819
-1.26915 1.0336 3.94105
-1.0421 1.1984 3.9189
-0.887926 1.12238 3.92324
-0.732792 1.10483 3.88865
-0.481147 1.06842 3.90005
-0.298953 1.07697 3.87397
-0.0928635 1.1175 3.89255
0.117069 1.09815 3.92333
0.367375 1.08783 3.9526
0.490258 1.10415 3.90961
0.635625 1.0532 3.97785
1.0707 1.1172 3.9243
1.8944 1.14075 3.95215
2.0698 1.1813 3.91555
2.47021 1.11709 3.92034
2.6778 1.1559 3.8945
2.89895 1.0932 3.8914
3.11622 1.06498 3.89688
3.232 1.15328 3.88862
3.437 1.0851 3.9764
3.6348 1.1978 3.9481
4.1876 1.157 3.9769
4.28375 1.02655 3.9228
4.50848 1.11075 3.94322
4.64795 1.1021 3.9332
4.9091 1.13685 3.84745
5.11388 1.10377 3.92643
5.28607 1.1477 3.93693
5.4498 1.11733 3.9183
5.7295 1.0234 3.9239
5.8662 1.10823 3.93
6.3468 1.10533 3.85077
6.47705 1.09118 3.93832
6.71607 1.09067 3.893
6.86002 1.12727 3.89575
7.9458 1.1078 3.94163
8.0834 1.0775 3.8836
8.33025 1.08639 3.93743
8.4748 1.05645 3.98225
8.7481 1.1104 3.88265
8.94252 1.11773 3.9397
9.0731 1.13465 3.9366
9.28082 1.0255 3.90702
9.49713 1.1073 3.92353
9.6976 1.0289 3.8889
9.88855 1.06615 3.95515
10.1275 1.0958 3.992
10.21 1.1195 3.8458
10.537 1.09831 3.89284
10.751 1.0255 3.97835
11.101 1.1087 3.93445
11.5062 1.09064 3.9273
11.681 1.14671 3.918
11.884 1.10455 3.97565
12.1038 1.0831 3.9574
12.3372 1.0752 3.9386
12.4615 1.11668 3.95798
12.6925 1.1042 3.9039
12.9025 1.12373 3.91828
13.0754 1.12545 3.91488
13.358 1.1827 3.8834
13.5133 1.11327 3.92307
14.294 1.0743 3.9457
14.594 1.0421 3.8767
14.698 1.17585 3.82695
14.947 1.1049 3.9908
15.137 1.0185 3.8138
15.201 1.0647 3.8757
-15.169 1.2675 3.9688
-14.8695 1.23655 3.9394
-14.6953 1.304 3.8952
-14.5268 1.31457 3.90653
-14.36 1.29467 3.93762
-14.114 1.30088 3.94537
-13.8694 1.26307 3.93919
-13.727 1.2887 3.94313
-13.455 1.30605 3.92043
-13.333 1.3924 3.9599
-13.006 1.3018 3.9724
-12.948 1.2689 3.93657
-12.735 1.3483 3.95635
-12.54 1.3008 3.96095
-12.2899 1.35021 3.94682
-12.0878 1.3034 3.92592
-11.871 1.2896 3.9625
-11.7075 1.2975 3.8889
-11.469 1.2339 3.9731
-11.2893 1.25867 3.95163
-10.9223 1.28663 3.95152
-10.685 1.2663 3.9157
-10.3183 1.3083 3.89983
-10.1353 1.29643 3.94833
-9.90618 1.28055 3.91988
-9.26975 1.2856 3.9418
-9.10575 1.2979 3.96245
-8.63005 1.3404 3.9146
-8.50307 1.27877 3.94214
-8.252 1.2385 3.99675
-8.1144 1.298 3.9299
-7.30786 1.27063 3.91004
-7.07614 1.31331 3.91944
-6.93566 1.3239 3.88325
-6.75383 1.3238 3.88977
-6.43995 1.27425 3.9133
-6.31763 1.28415 3.88105
-6.08816 1.28166 3.9409
-5.9532 1.31317 3.9017
-5.7863 1.3383 3.9991
-5.49 1.28724 3.96544
-5.28277 1.35843 3.89713
-5.05745 1.33785 3.9435
-4.6414 1.3359 3.949
-4.51662 1.32735 3.8965
-4.35545 1.2497 3.92555
-3.774 1.2906 3.8843
-3.561 1.2396 3.9869
-3.28555 1.333 3.90995
-3.17915 1.34635 3.9185
-2.9588 1.26283 3.9596
-2.727 1.25795 3.93245
-2.3046 1.2254 3.9399
-2.1024 1.2551 3.9852
-1.87163 1.2849 3.9127
-1.61455 1.3001 3.9268
-1.49355 1.2905 3.98502
-1.33588 1.25927 3.90054
-1.006 1.3928 3.9153
-0.917343 1.26875 3.88585
-0.74843 1.2975 3.9327
-0.53273 1.3826 3.9684
-0.25248 1.3213 3.97305
-0.066129 1.3808 3.9402
0.106099 1.2892 3.96935
0.31269 1.30747 3.91543
0.4736 1.2973 3.91447
0.640925 1.2446 3.8793
1.0905 1.26885 3.979
1.48118 1.28633 3.9073
1.70072 1.26988 3.92819
1.9621 1.31077 3.8862
2.2779 1.2092 3.9646
2.48733 1.29788 3.87962
2.69897 1.26083 3.88427
3.09957 1.28487 3.90523
3.236 1.3401 3.9415
3.47195 1.2683 3.89405
3.93613 1.25268 3.91223
4.13115 1.34345 3.9185
4.51743 1.31157 3.90883
4.62755 1.30605 3.9731
4.89853 1.30232 3.93052
5.07247 1.25767 3.9488
5.32912 1.29263 3.9177
5.49433 1.25133 3.8969
5.6822 1.32467 3.85815
5.84595 1.29755 3.943
6.2385 1.26175 3.9407
6.95715 1.3492 3.9362
7.4882 1.30217 3.9496
7.82818 1.3094 3.91628
8.44455 1.3324 3.96195
8.67353 1.28657 3.924
8.87075 1.23595 3.9523
9.12453 1.31796 3.91062
9.26463 1.274 3.91313
9.7433 1.2605 3.92712
9.8941 1.21545 3.9463
10.148 1.3708 3.9831
10.3251 1.3143 3.91669
10.4857 1.2514 3.90503
10.6685 1.2992 3.93855
10.9517 1.35197 3.99083
11.1164 1.30859 3.91023
11.286 1.2372 3.92787
11.502 1.2911 3.9916
11.679 1.2651 3.9077
11.9605 1.2506 3.90155
12.052 1.2357 3.9416
12.2995 1.2767 3.9291
12.525 1.3351 3.9893
12.6712 1.3077 3.85218
12.8913 1.30417 3.93927
13.096 1.2851 3.9812
13.2452 1.2908 3.96272
13.5685 1.2158 3.9044
13.6685 1.23725 3.901
13.9101 1.31108 3.95833
14.12 1.32193 3.89267
14.2805 1.32375 3.9268
14.4876 1.30946 3.93428
14.699 1.3774 3.89775
14.8577 1.30797 3.90773
15.1095 1.37363 3.89862
15.231 1.33873 3.9309
-14.0646 1.4817 3.91187
-13.4783 1.4964 3.92047
-13.3735 1.51895 3.88525
-12.8519 1.49301 3.92829
-12.7542 1.52397 3.94373
-12.2743 1.47427 3.9462
-12.105 1.49053 3.89685
-11.668 1.447 3.9874
-11.463 1.5339 3.9097
-11.3467 1.47988 3.92807
-10.0235 1.46675 3.88585
-8.6946 1.49355 3.94335
-8.03535 1.48075 3.95123
-7.22495 1.45025 3.97165
-7.12425 1.47235 3.91305
-5.90117 1.5543 3.9235
-5.73247 1.5109 3.95577
-5.4849 1.49455 3.95365
-4.9418 1.5013 3.9946
-4.7433 1.4169 3.9973
-4.4408 1.5318 3.8833
-4.0025 1.5021 3.9741
-3.93357 1.47807 3.93133
-3.74475 1.47325 3.8957
-3.471 1.50275 3.95595
-2.9821 1.4145 3.9971
-1.6476 1.4004 3.9644
-1.09511 1.43681 3.90516
-0.44632 1.599 3.9123
-0.27994 1.48973 3.91325
-0.0842033 1.44487 3.92433
0.122219 1.42425 3.89445
0.49449 1.4657 3.9143
1.5787 1.5235 3.9828
1.771 1.4647 3.9958
1.91975 1.54065 3.9494
2.1495 1.5076 3.9564
2.5465 1.4876 3.96135
3.9182 1.4218 3.9909
4.26207 1.50683 3.9753
4.4442 1.4825 3.90465
4.8405 1.4016 3.9863
5.47333 1.4515 3.98207
5.69275 1.4267 3.96235
6.50604 1.48137 3.94168
7.34405 1.50367 3.93102
7.52938 1.45747 3.87143
7.8424 1.5966 3.9802
8.51628 1.47778 3.97527
8.70765 1.47412 3.92583
9.8336 1.4714 3.9385
10.085 1.56995 3.8946
10.9345 1.5643 3.95995
11.098 1.46773 3.9112
11.308 1.52915 3.91125
11.417 1.5149 3.8733
11.6878 1.47238 3.93613
12.876 1.4034 3.922
13.0577 1.4688 3.9846
13.8628 1.4309 3.9684
14.1495 1.5051 3.8998
14.2996 1.50158 3.94178
14.549 1.51052 3.93687
14.671 1.47937 3.9247
14.854 1.4893 3.9944
15.18 1.476 3.9604
-7.069 1.6259 3.9914
-3.9421 1.6439 3.9794
-1.4313 1.6136 3.9894
-0.31565 1.6428 3.97235
7.6392 1.6588 3.9323
-13.415 -0.43987 4.1171
13.8735 -0.41635 4.1138
-15.181 -0.20075 4.0606
-14.6915 -0.25596 4.0837
-14.3355 -0.247178 4.12823
-14.111 -0.236443 4.1211
-13.453 -0.271365 4.1001
-13.3027 -0.291408 4.12347
-13.14 -0.23202 4.1466
-12.8185 -0.313778 4.152
-12.74 -0.21277 4.1734
-12.034 -0.20343 4.1779
-11.9615 -0.2674 4.1724
-11.7027 -0.238806 4.15917
-11.4837 -0.28372 4.07468
-11.2693 -0.24605 4.0733
-11.099 -0.33066 4.1128
-10.8702 -0.34934 4.10465
-10.6945 -0.27002 4.06285
-10.0764 -0.28683 4.0794
-9.90935 -0.293965 4.1016
-9.7187 -0.23987 4.1379
-9.439 -0.239 4.1989
-8.7433 -0.22385 4.0573
-7.9005 -0.272508 4.11845
-7.7018 -0.310143 4.15873
-7.0709 -0.23205 4.0196
-6.96567 -0.308543 4.08173
-6.67147 -0.264037 4.1604
-6.2847 -0.22034 4.131
-6.0241 -0.2154 4.0341
-5.8769 -0.285958 4.12327
-5.7767 -0.22791 4.1509
-5.2812 -0.247875 4.1223
-4.6749 -0.26175 4.1659
-4.40865 -0.27035 4.1097
-4.26325 -0.289335 4.17482
-4.1069 -0.247913 4.09263
-3.6551 -0.20728 4.0204
-3.4815 -0.23169 4.1378
-2.2107 -0.271505 4.06765
-2.0376 -0.330975 4.1472
-1.9475 -0.22164 4.1743
-1.50158 -0.292403 4.1186
-1.2454 -0.21411 4.156
-0.82004 -0.31591 4.007
-0.71178 -0.24427 4.0364
-0.47309 -0.260725 4.1434
-0.21508 -0.300845 4.12455
-0.0842729 -0.237765 4.19025
0.127429 -0.304897 4.1126
0.28336 -0.29145 4.0375
0.48589 -0.28494 4.13075
0.70899 -0.27797 4.09855
1.33053 -0.327857 4.16033
1.50353 -0.304665 4.08806
1.6584 -0.245265 4.11755
1.89723 -0.25268 4.16933
2.1082 -0.24268 4.0727
2.292 -0.28627 4.1143
2.4678 -0.25948 4.08775
2.6324 -0.26866 4.13285
2.9161 -0.232 4.0904
3.07305 -0.2377 4.0319
3.29717 -0.304657 4.1207
3.466 -0.258498 4.12168
4.10624 -0.247636 4.14887
4.29405 -0.31113 4.10175
4.49427 -0.270903 4.13003
4.69308 -0.28008 4.13665
4.9555 -0.236175 4.14435
5.52577 -0.280533 4.10843
5.6795 -0.279343 4.08706
5.8666 -0.20744 4.0517
6.2062 -0.2204 4.133
6.51528 -0.265625 4.1049
6.6104 -0.31407 4.1259
7.0876 -0.21104 4.145
7.31455 -0.263148 4.18003
7.8978 -0.25654 4.1448
8.3519 -0.25905 4.1578
8.7543 -0.292445 4.14635
8.95418 -0.306218 4.10038
9.11372 -0.323142 4.13237
9.2111 -0.2371 4.0741
9.5032 -0.24786 4.1887
9.71155 -0.274 4.1113
10.2742 -0.276613 4.1104
10.4253 -0.31977 4.09102
10.794 -0.27654 4.169
10.837 -0.26285 4.1328
11.1597 -0.279315 4.15573
11.288 -0.28267 4.0983
11.5293 -0.252617 4.11393
11.9245 -0.277134 4.11071
12.124 -0.2333 4.1181
12.2832 -0.22152 4.07522
12.4805 -0.289948 4.16547
12.7209 -0.302636 4.09896
13.5065 -0.242305 4.11053
13.7013 -0.269887 4.09823
13.997 -0.32261 4.1926
14.2698 -0.300045 4.14153
14.462 -0.246307 4.09072
14.699 -0.259615 4.08845
14.9313 -0.26682 4.0793
15.12 -0.24493 4.0232
-15.2913 -0.109222 4.10399
-15.1022 -0.129642 4.12192
-14.846 -0.1602 4.0143
-14.7154 -0.0481469 4.1357
-14.531 -0.0541675 4.08718
-14.269 -0.0877112 4.11688
-14.0997 -0.0946065 4.10523
-13.9227 -0.0564592 4.1525
-13.7063 -0.100504 4.11527
-13.4931 -0.103034 4.07301
-13.3097 -0.0968172 4.09475
-13.0868 -0.116221 4.10037
-12.918 -0.0682407 4.1379
-12.6968 -0.0555235 4.12313
-12.5365 -0.081659 4.06483
-12.2879 -0.0956809 4.1075
-12.1074 -0.107702 4.09712
-11.8642 -0.0784959 4.04985
-11.6871 -0.0820365 4.13081
-11.528 -0.129595 4.1247
-11.301 -0.0909183 4.10333
-11.0916 -0.0706217 4.10158
-10.924 -0.1139 4.10465
-10.731 -0.0803417 4.06688
-10.4726 -0.0885625 4.10719
-10.2988 -0.0896653 4.13358
-10.111 -0.128081 4.13361
-9.91142 -0.0706887 4.10004
-9.70772 -0.112508 4.09328
-9.47977 -0.053351 4.06025
-9.27635 -0.131605 4.10296
-9.1675 -0.15071 4.092
-8.87519 -0.115948 4.09788
-8.7427 -0.0461538 4.11975
-8.53675 -0.0575092 4.07033
-8.31668 -0.106707 4.09664
-8.10625 -0.11188 4.11447
-7.89228 -0.0753603 4.05765
-7.7215 -0.0911541 4.07349
-7.5286 -0.0689942 4.0942
-7.2714 -0.107091 4.07938
-7.12042 -0.0795659 4.1358
-6.9396 -0.19069 4.192
-6.68738 -0.0394872 4.10698
-6.49651 -0.110148 4.11534
-6.27816 -0.0963339 4.12921
-6.13588 -0.128536 4.14025
-5.87593 -0.0364443 4.1395
-5.70399 -0.0940147 4.10159
-5.53148 -0.09635 4.11297
-5.2612 -0.052644 4.0607
-5.07674 -0.0878629 4.08138
-4.92322 -0.159662 4.11727
-4.68793 -0.0487095 4.07562
-4.53985 -0.0957298 4.1241
-4.28295 -0.0670609 4.0805
-4.09719 -0.109324 4.11589
-3.9109 -0.086501 4.111
-3.673 -0.0838933 4.0518
-3.50058 -0.104719 4.1052
-3.29397 -0.104037 4.11965
-3.12354 -0.0871012 4.13303
-2.92035 -0.0743642 4.0891
-2.69114 -0.0838598 4.09295
-2.51245 -0.103466 4.15275
-2.26101 -0.121116 4.09944
-2.1363 -0.0670588 4.1408
-1.87516 -0.0899852 4.0901
-1.71663 -0.122009 4.1399
-1.4809 -0.0720915 4.11785
-1.34148 -0.124343 4.11715
-1.12421 -0.0658893 4.12352
-0.86287 -0.0896925 4.11125
-0.733214 -0.0929822 4.11955
-0.506169 -0.0678506 4.09764
-0.260507 -0.092235 4.10159
-0.096903 -0.0787087 4.0381
0.151364 -0.075647 4.07776
0.292127 -0.0825958 4.06055
0.541625 -0.101365 4.09335
0.733272 -0.136277 4.1275
0.909172 -0.0250588 4.06799
1.1495 -0.122723 4.12477
1.2949 -0.0832503 4.17663
1.48722 -0.0733643 4.08647
1.67525 -0.112645 4.10735
1.87252 -0.0935188 4.12034
2.1762 -0.145265 4.04598
2.31306 -0.0779425 4.07932
2.51417 -0.103848 4.09963
2.6604 -0.0944965 4.10682
2.8992 -0.04431 4.1682
3.07075 -0.084613 4.07793
3.3229 -0.033221 4.1893
3.46593 -0.0804463 4.11723
3.7771 -0.16969 4.108
3.94289 -0.111716 4.10556
4.07132 -0.0443999 4.12227
4.2234 -0.13884 4.1306
4.54798 -0.0803023 4.10007
4.63 -0.15232 4.085
4.90763 -0.116891 4.13025
5.11367 -0.0393763 4.12858
5.28833 -0.120638 4.1527
5.52604 -0.101126 4.09491
5.70503 -0.0539252 4.1422
5.90451 -0.0584922 4.11858
6.10397 -0.119485 4.08254
6.2977 -0.0803147 4.0708
6.4875 -0.113149 4.0991
6.6516 -0.0474143 4.15283
6.89027 -0.14314 4.12238
7.10521 -0.0997563 4.12176
7.25293 -0.110132 4.11447
7.4932 -0.0959508 4.14092
7.601 -0.037083 4.1148
8.0628 -0.094823 4.0893
8.3492 -0.016363 4.0794
8.46875 -0.10419 4.11293
8.74585 -0.107835 4.0873
8.90255 -0.127114 4.1339
9.05972 -0.0866542 4.12142
9.28665 -0.0466942 4.13606
9.4683 -0.0742465 4.03265
9.69678 -0.101942 4.08821
9.902 -0.0953939 4.09406
10.083 -0.136182 4.10075
10.3033 -0.0928945 4.0965
10.491 -0.0967121 4.11023
10.694 -0.136553 4.09549
10.957 -0.105915 4.1155
11.0807 -0.14865 4.09827
11.2943 -0.10547 4.07533
11.4661 -0.0772034 4.0841
11.7233 -0.10822 4.15553
11.8892 -0.0740703 4.10938
12.1083 -0.0648367 4.10483
12.2753 -0.116278 4.14213
12.4879 -0.114367 4.12393
12.7385 -0.081525 4.1383
12.9433 -0.107731 4.12963
13.1123 -0.0937552 4.12184
13.3264 -0.12002 4.10882
13.4602 -0.0997798 4.0907
13.703 -0.080932 4.0913
13.8663 -0.108523 4.0698
14.0863 -0.0785443 4.04343
14.2852 -0.0950319 4.10992
14.4874 -0.101067 4.11002
14.7055 -0.0840063 4.12222
14.8982 -0.106095 4.11053
15.0633 -0.0977075 4.1066
-15.494 0.0929615 4.1258
-15.2378 0.0787017 4.1018
-15.0686 0.101152 4.10137
-14.9293 0.116918 4.12149
-14.7007 0.0957595 4.11736
-14.491 0.125529 4.13739
-14.2999 0.129319 4.10324
-14.1248 0.111832 4.08376
-13.9208 0.0868974 4.07526
-13.6998 0.085345 4.15334
-13.4968 0.10068 4.12634
-13.2957 0.0804531 4.10241
-13.1219 0.107104 4.11719
-12.9018 0.0879455 4.10813
-12.729 0.092866 4.10917
-12.4946 0.101055 4.10192
-12.314 0.116511 4.08288
-12.0813 0.0881626 4.12287
-11.9137 0.112179 4.09986
-11.7275 0.096308 4.12704
-11.5513 0.0885523 4.13225
-11.2883 0.102558 4.10113
-11.1018 0.108304 4.10622
-10.8882 0.113259 4.09691
-10.7096 0.0969101 4.09928
-10.5125 0.114875 4.10207
-10.3078 0.109872 4.10047
-10.0858 0.106453 4.07125
-9.93375 0.130497 4.11372
-9.71786 0.098384 4.089
-9.44577 0.103648 4.14935
-9.29548 0.105355 4.12692
-9.09246 0.105149 4.11115
-8.8992 0.102476 4.12262
-8.67215 0.110313 4.0956
-8.52235 0.104484 4.11043
-8.29107 0.104134 4.12833
-8.1107 0.13489 4.09087
-7.88838 0.100032 4.09109
-7.66351 0.089033 4.13554
-7.4971 0.123055 4.10547
-7.28448 0.115437 4.11528
-7.03735 0.0787111 4.1271
-6.89945 0.0585938 4.1212
-6.7236 0.129287 4.12453
-6.4802 0.151488 4.0633
-6.29452 0.0919294 4.10409
-6.05387 0.181108 4.16295
-5.9004 0.115331 4.0769
-5.68525 0.13977 4.181
-5.4865 0.10982 4.1925
-5.2818 0.0630696 4.11409
-5.10056 0.0864861 4.11409
-4.90023 0.0994293 4.05193
-4.6694 0.167393 4.12163
-4.49912 0.107726 4.105
-4.2657 0.0673339 4.1196
-4.12104 0.083916 4.11907
-3.90835 0.0678495 4.12044
-3.76886 0.0935758 4.12154
-3.5816 0.0917347 4.12477
-3.3132 0.110782 4.12087
-3.07092 0.132278 4.07293
-2.89347 0.102185 4.10659
-2.7207 0.080189 4.1501
-2.54629 0.115845 4.095
-2.288 0.0857688 4.10084
-2.11248 0.123234 4.06238
-1.88907 0.0959288 4.12713
-1.71727 0.102507 4.10603
-1.52747 0.157157 4.0644
-1.2912 0.0888375 4.08864
-1.07659 0.0887277 4.105
-0.92456 0.042905 4.142
-0.739737 0.0996855 4.13782
-0.442378 0.109279 4.11452
-0.277699 0.126038 4.11294
-0.10508 0.0957079 4.11838
0.0762626 0.163445 4.07669
0.266195 0.059479 4.1096
0.485317 0.102634 4.15325
0.722571 0.107543 4.09812
0.919892 0.110131 4.12873
1.13391 0.111954 4.08682
1.25705 0.176807 4.1222
1.49148 0.142483 4.10253
1.70638 0.0856776 4.09584
1.88706 0.112328 4.11046
2.06405 0.0862463 4.07417
2.33075 0.0947387 4.12611
2.4951 0.0795859 4.11185
2.72997 0.0354651 4.08972
2.89226 0.103494 4.14558
3.06009 0.136718 4.1279
3.29297 0.100732 4.1353
3.49111 0.105129 4.09011
3.65777 0.0983567 4.14658
3.90605 0.0796932 4.08435
4.09834 0.105161 4.09779
4.2737 0.113889 4.08189
4.51388 0.091973 4.1377
4.73023 0.112478 4.10047
4.9273 0.11645 4.10236
5.11416 0.125279 4.11524
5.35136 0.10127 4.0844
5.50107 0.134993 4.1035
5.72257 0.120802 4.05097
5.93053 0.129143 4.11082
6.08062 0.0897748 4.11063
6.39345 0.118234 4.0997
6.49595 0.0809271 4.10378
6.7197 0.115929 4.09388
6.88979 0.104736 4.10859
7.11956 0.112635 4.12833
7.31075 0.0850155 4.12002
7.52517 0.0907285 4.15517
7.70059 0.136506 4.11232
7.87516 0.0961296 4.14595
8.11641 0.102532 4.16387
8.28553 0.0421715 4.17845
8.50928 0.129915 4.10924
8.70939 0.119643 4.10479
8.92166 0.0738046 4.12711
9.10414 0.0968925 4.16725
9.29053 0.1009 4.13264
9.50047 0.105081 4.09547
9.70761 0.108408 4.1173
9.89737 0.101679 4.09554
10.0731 0.0960344 4.10452
10.2799 0.110932 4.08299
10.495 0.11505 4.11032
10.6637 0.0912092 4.10222
10.9307 0.0279239 4.07027
11.0884 0.0924199 4.0982
11.2969 0.116721 4.1038
11.5048 0.0916462 4.10816
11.7218 0.098276 4.11078
11.8982 0.100253 4.10427
12.0513 0.0664378 4.10087
12.3043 0.10782 4.09443
12.4998 0.139783 4.11348
12.703 0.11 4.05835
12.9061 0.106958 4.10312
13.0977 0.0993676 4.14853
13.3273 0.120655 4.11837
13.4982 0.0900847 4.10828
13.7204 0.093828 4.07793
13.9094 0.115061 4.1196
14.1038 0.0881552 4.11637
14.2898 0.0864349 4.12663
14.5038 0.111207 4.10871
14.7249 0.0888347 4.10584
14.867 0.0873314 4.13059
15.0648 0.0824071 4.12445
15.2845 0.0717942 4.07333
-15.5105 0.35865 4.0414
-15.3302 0.267359 4.09699
-15.0392 0.289445 4.14215
-14.9102 0.326599 4.07695
-14.7156 0.298272 4.08531
-14.4962 0.300935 4.10323
-14.2738 0.310388 4.14219
-14.096 0.30745 4.06861
-13.9013 0.297935 4.12644
-13.6753 0.283007 4.11397
-13.499 0.300576 4.10545
-13.3286 0.334555 4.09575
-13.1358 0.318092 4.09504
-12.9123 0.309276 4.11216
-12.7178 0.291434 4.09534
-12.4994 0.300658 4.10378
-12.3201 0.229807 4.09294
-12.0969 0.317214 4.11489
-11.8925 0.293841 4.09031
-11.6295 0.283597 4.06915
-11.4911 0.31142 4.10483
-11.2997 0.316057 4.07993
-11.0934 0.299018 4.0995
-10.8959 0.329804 4.08894
-10.683 0.321718 4.13602
-10.514 0.322928 4.10474
-10.2764 0.317743 4.10294
-10.1047 0.267682 4.105
-9.91315 0.298376 4.09732
-9.70385 0.328885 4.0723
-9.50739 0.272902 4.09943
-9.29222 0.322319 4.0995
-9.09827 0.308087 4.1061
-8.92245 0.290026 4.09694
-8.70146 0.298172 4.09959
-8.47663 0.306912 4.09375
-8.31574 0.302089 4.12732
-8.1502 0.278275 4.11075
-7.88908 0.32588 4.13771
-7.72377 0.276203 4.0724
-7.48253 0.311597 4.09786
-7.31434 0.313826 4.10909
-7.14524 0.322482 4.10406
-6.8894 0.3072 4.12096
-6.6912 0.289273 4.0737
-6.50727 0.283406 4.08583
-6.31293 0.249278 4.12895
-6.12068 0.300624 4.11796
-5.91979 0.339065 4.09225
-5.69292 0.314507 4.15445
-5.51195 0.280914 4.12556
-5.29729 0.28237 4.08317
-5.1101 0.373518 4.11317
-4.89633 0.333042 4.09525
-4.71782 0.307341 4.06367
-4.51249 0.260373 4.12408
-4.27639 0.309758 4.13884
-4.08878 0.297377 4.10275
-3.9181 0.30521 4.10312
-3.71323 0.291206 4.10531
-3.48518 0.231513 4.10905
-3.26854 0.288595 4.11059
-3.09993 0.299856 4.07796
-2.90505 0.290277 4.11735
-2.69371 0.317954 4.17846
-2.54703 0.322043 4.134
-2.28623 0.284875 4.13203
-2.09601 0.314736 4.05602
-1.84424 0.320595 4.12771
-1.70486 0.317112 4.10632
-1.48865 0.296252 4.10122
-1.28057 0.298753 4.11712
-1.13305 0.25786 4.09
-0.878693 0.28234 4.11853
-0.694918 0.28943 4.12808
-0.497788 0.330948 4.09828
-0.312364 0.284876 4.11696
-0.0950895 0.327645 4.14542
0.0548587 0.24383 4.103
0.296544 0.263983 4.09782
0.474425 0.23145 4.0755
0.696073 0.314371 4.11021
0.932768 0.355413 4.10629
1.1044 0.354333 4.12267
1.27315 0.300431 4.10607
1.48817 0.317154 4.08745
1.69893 0.309624 4.10779
1.87103 0.282534 4.15416
2.10752 0.223758 4.09663
2.31503 0.296901 4.12191
2.49447 0.2831 4.1442
2.73356 0.295786 4.09149
2.92552 0.273873 4.10016
3.10319 0.367099 4.09524
3.3374 0.30947 4.1785
3.51411 0.326242 4.07818
3.71998 0.349413 4.17057
3.93501 0.295396 4.06475
4.05632 0.27483 4.13377
4.28073 0.288156 4.09504
4.49671 0.291194 4.0726
4.72687 0.270959 4.1052
4.8903 0.328607 4.1012
5.08564 0.298205 4.09826
5.2955 0.304024 4.07069
5.50543 0.307079 4.08822
5.74645 0.315691 4.12092
5.88528 0.284088 4.07865
6.09659 0.293665 4.13075
6.31464 0.300017 4.11626
6.50678 0.28693 4.11885
6.66222 0.291322 4.0878
6.90497 0.305917 4.0914
7.11073 0.329707 4.11213
7.32363 0.303333 4.08688
7.49879 0.270653 4.10521
7.69043 0.29379 4.10839
7.92616 0.26312 4.11208
8.08409 0.296717 4.12224
8.29479 0.313006 4.14124
8.4837 0.289019 4.14323
8.72899 0.301245 4.14445
8.90668 0.29385 4.13455
9.10816 0.321318 4.09444
9.30399 0.291415 4.0587
9.4587 0.28692 4.1589
9.70743 0.336812 4.11792
9.92525 0.336785 4.12133
10.0797 0.29113 4.12378
10.2731 0.299342 4.11443
10.5194 0.288755 4.07599
10.727 0.32536 4.1377
10.8753 0.318677 4.09924
11.106 0.282983 4.10843
11.2815 0.270249 4.13623
11.4903 0.31719 4.0892
11.6956 0.298008 4.10918
11.8903 0.325071 4.13273
12.0825 0.295583 4.08445
12.231 0.310225 4.04962
12.4782 0.255545 4.11362
12.6837 0.285922 4.10812
12.9252 0.297555 4.13837
13.108 0.321109 4.08293
13.2771 0.300658 4.06466
13.5051 0.290221 4.10317
13.6988 0.36069 4.09777
13.8944 0.299404 4.10114
14.0854 0.297363 4.09606
14.3025 0.26184 4.10813
14.4835 0.300716 4.0809
14.6858 0.292029 4.11198
14.9101 0.315041 4.12893
15.1262 0.312371 4.12698
15.2818 0.294419 4.1144
-15.4757 0.526878 4.09816
-15.2847 0.42069 4.12313
-15.1133 0.485773 4.11023
-14.9131 0.496956 4.10116
-14.6675 0.482808 4.07235
-14.5022 0.505896 4.07785
-14.3099 0.482494 4.09498
-14.0936 0.500148 4.10879
-13.8595 0.511762 4.08532
-13.7192 0.506185 4.06922
-13.5052 0.491746 4.08066
-13.2881 0.506118 4.11844
-13.0933 0.51008 4.07717
-12.8676 0.49421 4.12651
-12.6852 0.518444 4.13046
-12.515 0.494541 4.09183
-12.3207 0.514061 4.09643
-12.1195 0.527213 4.08652
-11.873 0.512578 4.11387
-11.706 0.528897 4.08647
-11.4985 0.493277 4.09145
-11.2865 0.474257 4.09286
-11.1199 0.53391 4.09285
-10.8968 0.484637 4.11624
-10.6831 0.466542 4.09276
-10.4704 0.515986 4.11613
-10.3164 0.493636 4.08396
-10.109 0.483053 4.05837
-9.87132 0.497165 4.06745
-9.69677 0.459152 4.11092
-9.5116 0.507415 4.08245
-9.28058 0.515483 4.13108
-9.11564 0.529736 4.09505
-8.92763 0.497832 4.10535
-8.73357 0.46634 4.1205
-8.43232 0.502707 4.09717
-8.28303 0.51221 4.11848
-8.07075 0.5233 4.09757
-7.91547 0.500013 4.05822
-7.66722 0.513292 4.12746
-7.49493 0.499728 4.10762
-7.3697 0.504425 4.10838
-7.06647 0.524493 4.0768
-6.9738 0.497615 4.07115
-6.69488 0.574088 4.0735
-6.50298 0.495339 4.08262
-6.29304 0.490395 4.13462
-6.08535 0.483385 4.09882
-5.90544 0.444404 4.11668
-5.69041 0.508739 4.11444
-5.5233 0.512926 4.09152
-5.30274 0.529448 4.11652
-5.09052 0.531749 4.11825
-4.91623 0.490725 4.10808
-4.65649 0.489362 4.12774
-4.52784 0.484884 4.08839
-4.31211 0.557499 4.11781
-4.10613 0.495837 4.13403
-3.87368 0.482985 4.13729
-3.69601 0.518751 4.09238
-3.50091 0.493594 4.08004
-3.30607 0.48227 4.02293
-3.10358 0.513943 4.06672
-2.897 0.454403 4.15543
-2.66438 0.501732 4.13545
-2.49712 0.491501 4.09858
-2.2597 0.50481 4.06445
-2.07915 0.527599 4.12407
-1.88616 0.553128 4.09145
-1.65525 0.49606 4.13662
-1.4283 0.42541 4.197
-1.28796 0.508212 4.07578
-1.1251 0.474791 4.10765
-0.896808 0.499499 4.11316
-0.650559 0.519489 4.10637
-0.490257 0.51647 4.09883
-0.305926 0.499076 4.07903
-0.128003 0.50564 4.13467
0.124786 0.55087 4.0755
0.309504 0.475696 4.10134
0.503744 0.514274 4.15168
0.686091 0.502698 4.10048
0.940226 0.506959 4.07179
1.11765 0.461893 4.15658
1.31495 0.509961 4.12447
1.48707 0.501982 4.13342
1.68948 0.515572 4.12867
1.8564 0.498112 4.10813
2.12097 0.52795 4.08713
2.36454 0.506331 4.06586
2.50615 0.484437 4.09765
2.68753 0.482814 4.09298
2.93773 0.507823 4.1204
3.12257 0.500554 4.09237
3.29978 0.47543 4.11041
3.48069 0.505087 4.13691
3.7371 0.469685 4.08567
3.89782 0.538544 4.11464
4.12682 0.472798 4.10878
4.28042 0.514588 4.08423
4.53172 0.498563 4.04812
4.7066 0.500918 4.1226
4.88519 0.466986 4.11709
5.09804 0.519894 4.09467
5.31367 0.477459 4.10755
5.50951 0.484783 4.08667
5.66005 0.456138 4.1276
5.89568 0.495021 4.11847
6.06923 0.498805 4.1338
6.28224 0.514891 4.10553
6.48433 0.492718 4.12353
6.675 0.502341 4.09666
6.91158 0.490595 4.10757
7.06407 0.527025 4.0867
7.29923 0.499503 4.08827
7.53173 0.525246 4.09934
7.70722 0.496103 4.10656
7.9267 0.489485 4.0741
8.09604 0.453129 4.11926
8.27302 0.487387 4.14085
8.47415 0.488875 4.13975
8.68829 0.485398 4.13077
8.89523 0.505816 4.13501
9.1254 0.526427 4.10538
9.28852 0.508886 4.12735
9.5669 0.42589 4.0971
9.68111 0.514679 4.11135
9.9038 0.560252 4.06678
10.1335 0.479139 4.12101
10.2987 0.524232 4.10795
10.4967 0.503202 4.11095
10.6773 0.540689 4.09613
10.9296 0.49794 4.10809
11.1005 0.467127 4.0674
11.2892 0.485516 4.12488
11.5314 0.515581 4.08961
11.71 0.514358 4.08402
11.8939 0.480402 4.12027
12.0961 0.51214 4.1057
12.3271 0.520431 4.12111
12.521 0.499675 4.08618
12.6993 0.56029 4.1085
12.908 0.537996 4.12184
13.0904 0.502844 4.10182
13.3024 0.514243 4.09368
13.503 0.511487 4.09895
13.685 0.513213 4.11404
13.9073 0.560753 4.05898
14.106 0.46015 4.1123
14.3239 0.461516 4.10979
14.487 0.535175 4.13312
14.7325 0.518728 4.10005
14.8998 0.525778 4.09722
15.1024 0.492431 4.13409
15.2715 0.5399 4.1739
-15.2556 0.67275 4.15596
-15.1043 0.694685 4.08662
-14.8883 0.680362 4.1152
-14.676 0.7854 4.0309
-14.5155 0.666808 4.08569
-14.2858 0.681184 4.11242
-14.1186 0.676606 4.11325
-13.8861 0.698186 4.13739
-13.7128 0.72841 4.12283
-13.5001 0.723634 4.10774
-13.3165 0.676265 4.11805
-13.0853 0.664528 4.07855
-12.9109 0.671536 4.10823
-12.7058 0.735774 4.14258
-12.495 0.722815 4.1217
-12.2849 0.71626 4.11745
-12.0929 0.69865 4.12174
-11.8807 0.71069 4.09641
-11.7089 0.67169 4.10958
-11.5099 0.68464 4.08977
-11.2655 0.674226 4.10075
-11.077 0.732139 4.0916
-10.9137 0.728312 4.1101
-10.7408 0.698224 4.12003
-10.5065 0.698832 4.11404
-10.3126 0.678901 4.04892
-10.0675 0.724313 4.08862
-9.89812 0.661428 4.10811
-9.71379 0.726305 4.11237
-9.4979 0.712798 4.12755
-9.27047 0.743743 4.0869
-9.08365 0.711828 4.08751
-8.87945 0.709702 4.09125
-8.71025 0.71542 4.10298
-8.53452 0.703568 4.04422
-8.33052 0.712314 4.13943
-8.06996 0.736967 4.11996
-7.86715 0.69967 4.0958
-7.7178 0.693616 4.08496
-7.48808 0.709359 4.1096
-7.27136 0.718572 4.09146
-7.08971 0.725175 4.11899
-6.8164 0.73759 4.0129
-6.68047 0.755087 4.12406
-6.50712 0.690988 4.12327
-6.28866 0.69165 4.10279
-6.0935 0.702571 4.15665
-5.91079 0.687979 4.10326
-5.73748 0.693169 4.11592
-5.49415 0.726138 4.12045
-5.32143 0.687773 4.12503
-5.11833 0.704893 4.13697
-4.89814 0.72541 4.11363
-4.70131 0.722049 4.10248
-4.47034 0.712574 4.10125
-4.30221 0.66637 4.08105
-4.09975 0.64601 4.0735
-3.88975 0.70292 4.14783
-3.66343 0.734962 4.12611
-3.50413 0.706359 4.11567
-3.33027 0.690076 4.11726
-3.10214 0.724141 4.09161
-2.9186 0.683233 4.11894
-2.6804 0.78374 4.10437
-2.4991 0.71941 4.12045
-2.31698 0.71167 4.12852
-2.13528 0.699785 4.1019
-1.8906 0.702398 4.08918
-1.69095 0.699102 4.07252
-1.5047 0.703794 4.10392
-1.2894 0.712618 4.07964
-1.1252 0.67976 4.09035
-0.912094 0.703538 4.09996
-0.720182 0.690969 4.10553
-0.493644 0.656002 4.12159
-0.30305 0.707522 4.12383
-0.0980932 0.703793 4.11468
0.122732 0.715951 4.08621
0.284407 0.698485 4.10765
0.531196 0.729515 4.11042
0.731947 0.706945 4.11055
0.929796 0.734909 4.10129
1.08513 0.679265 4.10017
1.29745 0.704712 4.09275
1.50657 0.702109 4.12581
1.64789 0.689863 4.112
1.90816 0.694685 4.10312
2.0403 0.71779 4.107
2.29736 0.686611 4.08089
2.51735 0.706747 4.09986
2.69509 0.69225 4.11919
2.90826 0.689179 4.07973
3.1021 0.701247 4.09176
3.29098 0.698181 4.10741
3.52954 0.689251 4.09322
3.69843 0.709337 4.1137
3.90471 0.687518 4.14861
4.08383 0.7106 4.10047
4.27417 0.715972 4.08005
4.48126 0.71583 4.13552
4.71751 0.685016 4.1115
4.85267 0.714683 4.10903
5.09196 0.697076 4.11031
5.30344 0.629774 4.06136
5.50529 0.698978 4.10169
5.71217 0.712341 4.11597
5.83138 0.694383 4.15828
6.09588 0.685392 4.11684
6.33733 0.64319 4.10085
6.49508 0.6797 4.11937
6.7119 0.70548 4.1344
6.89194 0.690651 4.0982
7.0812 0.708125 4.09352
7.29508 0.730318 4.09155
7.50044 0.714293 4.08483
7.68214 0.67755 4.11479
7.8587 0.710007 4.09433
8.10498 0.719936 4.08923
8.29776 0.722379 4.08325
8.48804 0.711459 4.1107
8.69895 0.706091 4.12148
8.85852 0.71915 4.09402
9.09376 0.672317 4.10985
9.30196 0.721034 4.10846
9.45564 0.690815 4.10462
9.68352 0.689357 4.11303
9.91564 0.719933 4.11847
10.0779 0.71212 4.0902
10.2995 0.722455 4.09257
10.5076 0.692334 4.117
10.7507 0.686657 4.08653
10.9155 0.728225 4.0889
11.1312 0.637939 4.12761
11.3096 0.725691 4.09647
11.5057 0.687257 4.09732
11.7575 0.725215 4.07945
11.882 0.682503 4.11252
12.1309 0.671362 4.10093
12.293 0.701821 4.11099
12.5128 0.697815 4.13524
12.6877 0.698986 4.1169
12.9101 0.683476 4.0937
13.0816 0.700409 4.09051
13.3014 0.698403 4.07803
13.504 0.625329 4.07675
13.6913 0.65763 4.10003
13.9035 0.682513 4.10103
14.098 0.650069 4.08399
14.305 0.729512 4.09288
14.4989 0.694962 4.1228
14.6899 0.746989 4.10057
14.9386 0.704178 4.13323
15.121 0.709753 4.08547
15.2155 0.6757 4.0621
-15.4512 0.89242 4.10408
-15.2996 0.88189 4.15337
-15.0974 0.916867 4.09067
-14.923 0.85053 4.1256
-14.7178 0.93377 4.11115
-14.512 0.879126 4.12126
-14.3018 0.924398 4.11478
-14.0834 0.912758 4.10038
-13.901 0.902864 4.09716
-13.6883 0.904612 4.11426
-13.5243 0.939293 4.07453
-13.3396 0.901381 4.11024
-13.1001 0.904109 4.10614
-12.929 0.91722 4.08432
-12.6875 0.899455 4.13618
-12.4934 0.908559 4.12947
-12.2911 0.916218 4.10339
-12.141 0.93219 4.079
-11.9178 0.86054 4.07412
-11.7174 0.934576 4.09616
-11.4752 0.873303 4.12068
-11.3204 0.88773 4.10204
-11.1138 0.897099 4.1541
-10.8852 0.942418 4.1015
-10.7165 0.845688 4.13807
-10.4715 0.889263 4.09751
-10.2953 0.90333 4.07931
-10.1072 0.896053 4.11252
-9.88997 0.893045 4.15965
-9.68122 0.885107 4.10202
-9.51826 0.921093 4.13293
-9.3191 0.895104 4.08543
-9.09094 0.915776 4.10469
-8.9218 0.929093 4.15603
-8.6879 0.939777 4.03758
-8.45424 0.885984 4.0887
-8.31134 0.880286 4.10089
-8.09267 0.883807 4.10073
-7.90028 0.911158 4.08784
-7.71859 0.87196 4.12371
-7.48541 0.907776 4.12372
-7.30979 0.907757 4.10886
-7.11387 0.916926 4.11574
-6.87094 0.900139 4.14294
-6.72728 0.868655 4.12757
-6.4811 0.907912 4.0954
-6.31049 0.947727 4.13013
-6.09577 0.91848 4.13585
-5.89204 0.901803 4.09958
-5.67106 0.88558 4.10765
-5.47319 0.8801 4.11662
-5.306 0.835233 4.10707
-5.07827 0.894855 4.10187
-4.90212 0.920138 4.06528
-4.67902 0.913559 4.08703
-4.51038 0.908104 4.10028
-4.34664 0.890394 4.11889
-4.03852 0.920269 4.1292
-3.88265 0.877904 4.09479
-3.68888 0.899474 4.13826
-3.48008 0.913527 4.12036
-3.33488 0.923734 4.11044
-3.1073 0.908349 4.09323
-2.89954 0.910012 4.09363
-2.69871 0.889991 4.10141
-2.51299 0.912712 4.08192
-2.26627 0.899897 4.131
-2.12149 0.900129 4.11603
-1.95327 0.910831 4.10605
-1.69378 0.879943 4.1302
-1.47776 0.908581 4.08307
-1.30055 0.914442 4.09713
-1.07412 0.929441 4.11528
-0.938345 0.93305 4.09617
-0.72002 0.881097 4.14036
-0.488474 0.876322 4.13892
-0.276548 0.875807 4.10294
-0.122541 0.916627 4.08461
0.0988883 0.895116 4.11724
0.30315 0.857207 4.10286
0.496658 0.921713 4.11628
0.716442 0.88851 4.09531
0.881902 0.893733 4.08443
1.09952 0.892103 4.10005
1.2731 0.891584 4.08877
1.48058 0.904717 4.11197
1.65703 0.885375 4.10501
1.92327 0.869421 4.1052
2.11342 0.929908 4.08742
2.33177 0.841193 4.12603
2.49044 0.871996 4.10164
2.70891 0.866041 4.10038
2.89023 0.895158 4.08755
3.10978 0.8988 4.07834
3.29011 0.892094 4.11519
3.49914 0.896594 4.10223
3.70928 0.861778 4.12485
3.8638 0.90102 4.13223
4.08524 0.903099 4.12938
4.29063 0.88846 4.0914
4.49781 0.888929 4.09615
4.66857 0.907348 4.07762
4.89806 0.888019 4.11531
5.07479 0.905888 4.10916
5.31267 0.890991 4.1396
5.50034 0.89511 4.10881
5.68305 0.887948 4.09738
5.89319 0.892152 4.10832
6.12907 0.905554 4.14577
6.33208 0.905432 4.10425
6.51656 0.869441 4.10002
6.67998 0.908143 4.11732
6.86102 0.921575 4.13075
7.10578 0.900936 4.10843
7.3275 0.923375 4.09328
7.48355 0.880821 4.08449
7.69465 0.894927 4.09612
7.87373 0.90898 4.07607
8.09911 0.883984 4.0891
8.28925 0.905192 4.14416
8.51977 0.907925 4.09515
8.69903 0.907853 4.08353
8.88872 0.933797 4.08717
9.12196 0.903767 4.09452
9.29373 0.897255 4.09103
9.4674 0.878942 4.10775
9.7056 0.874179 4.11594
9.92325 0.937229 4.12939
10.1192 0.895765 4.09281
10.2542 0.887339 4.0928
10.4667 0.899207 4.12298
10.6836 0.916936 4.1387
10.879 0.906731 4.08065
11.0831 0.89403 4.10118
11.3012 0.92877 4.04798
11.4642 0.913837 4.0777
11.6518 0.862552 4.07848
11.8819 0.885503 4.08684
12.0521 0.959266 4.12936
12.2793 0.908747 4.12726
12.4917 0.914873 4.13937
12.6697 0.915271 4.08734
12.8635 0.938644 4.10851
13.0856 0.894554 4.08851
13.307 0.90235 4.13254
13.5116 0.896083 4.02061
13.7044 0.911937 4.07271
13.9125 0.900847 4.08075
14.1335 0.878273 4.13821
14.3108 0.872341 4.08639
14.5308 0.893428 4.13602
14.7141 0.901933 4.1034
14.8749 0.905765 4.12844
15.1071 0.91672 4.1399
15.2948 0.915165 4.08765
-15.4837 1.10022 4.07665
-15.2302 1.0255 4.12262
-15.1079 1.12367 4.08004
-14.877 1.07307 4.14788
-14.7013 1.12471 4.10619
-14.4772 1.08691 4.09286
-14.3067 1.15343 4.1545
-14.1199 1.09967 4.10631
-13.9309 1.07021 4.12441
-13.709 1.10074 4.13356
-13.5306 1.12229 4.11363
-13.2793 1.08332 4.12652
-13.139 1.16332 4.1505
-12.8882 1.10312 4.08816
-12.6697 1.08617 4.13087
-12.5047 1.09716 4.09246
-12.2981 1.10839 4.11294
-12.1 1.13161 4.08296
-11.9118 1.13778 4.12472
-11.7292 1.11447 4.10855
-11.4628 1.06105 4.05927
-11.3295 1.12444 4.10147
-11.1385 1.08834 4.11735
-10.941 1.11092 4.05993
-10.7198 1.08356 4.12567
-10.5175 1.05845 4.1113
-10.3002 1.11256 4.08988
-10.1134 1.08669 4.09229
-9.93674 1.1148 4.10924
-9.66912 1.06825 4.1228
-9.51509 1.10491 4.10029
-9.29998 1.09768 4.0868
-9.10881 1.11023 4.1208
-8.804 1.1769 4.0718
-8.66357 1.10855 4.1081
-8.50135 1.13001 4.12903
-8.29333 1.09678 4.11131
-8.05457 1.11264 4.10652
-7.91986 1.09896 4.10385
-7.72835 1.09808 4.07487
-7.41423 1.09038 4.11328
-7.2877 1.0906 4.11705
-7.09987 1.08648 4.0848
-6.88738 1.15403 4.0984
-6.6907 1.11588 4.11921
-6.48201 1.10104 4.08585
-6.32595 1.10195 4.09735
-6.09013 1.13998 4.12107
-5.92233 1.11549 4.09023
-5.69649 1.09129 4.1282
-5.51975 1.11779 4.1327
-5.3425 1.1937 4.1663
-5.09529 1.10681 4.10142
-4.87415 1.11366 4.12131
-4.69002 1.06855 4.12326
-4.5127 1.12018 4.1138
-4.31373 1.08768 4.11082
-3.88027 1.11456 4.10221
-3.70968 1.11809 4.12039
-3.49664 1.10059 4.08335
-3.33043 1.08719 4.13622
-3.07735 1.10875 4.0736
-2.89686 1.08868 4.12511
-2.66999 1.09566 4.12719
-2.46799 1.06258 4.11133
-2.316 1.06202 4.12518
-2.11558 1.14965 4.12698
-1.95047 1.12264 4.11413
-1.71877 1.07623 4.06991
-1.49662 1.07119 4.14065
-1.30045 1.113 4.17905
-1.07573 1.13525 4.14362
-0.864268 1.12565 4.08909
-0.69107 1.08496 4.09127
-0.551313 1.1137 4.11477
-0.239263 1.07882 4.0545
-0.0980831 1.10866 4.12114
0.102536 1.10456 4.15025
0.300874 1.07543 4.09108
0.49264 1.08572 4.11822
0.683102 1.12016 4.09224
0.922356 1.08057 4.07793
1.11693 1.07153 4.09152
1.30077 1.12345 4.11055
1.5287 1.1143 4.10139
1.73835 1.0909 4.1256
1.917 1.11884 4.09372
2.17078 1.07309 4.11572
2.2926 1.02533 4.12365
2.4945 1.09293 4.13036
2.66998 1.08053 4.06635
2.88372 1.11775 4.12892
3.0802 1.14566 4.12394
3.31359 1.09564 4.1108
3.50655 1.12234 4.12513
3.67422 1.11728 4.10556
3.90024 1.14377 4.11225
4.09643 1.1011 4.10723
4.30608 1.08625 4.09105
4.49318 1.11985 4.07985
4.69489 1.13492 4.09361
4.88031 1.08915 4.06181
5.08324 1.07369 4.14931
5.29201 1.05252 4.09593
5.50428 1.05559 4.10512
5.668 1.01517 4.09728
5.91582 1.11046 4.09966
6.13804 1.10534 4.10205
6.27855 1.06704 4.09287
6.51963 1.09939 4.10738
6.71261 1.10352 4.11872
6.92308 1.05096 4.13669
7.12831 1.12696 4.08241
7.27615 1.09553 4.1116
7.5346 1.06782 4.11005
7.68722 1.11338 4.11003
7.88292 1.08279 4.10467
8.10798 1.11794 4.11364
8.3364 1.10824 4.13057
8.52247 1.08937 4.13648
8.67634 1.07522 4.08529
8.9481 1.1359 4.11833
9.0815 1.11506 4.10439
9.30721 1.11127 4.10483
9.53428 1.08131 4.1129
9.71113 1.09501 4.10365
9.92545 1.12535 4.1123
10.1046 1.11661 4.12167
10.2952 1.10421 4.09742
10.5072 1.10767 4.09845
10.6796 1.12479 4.11327
10.9048 1.12122 4.10032
11.034 1.0982 4.084
11.3103 1.12527 4.12882
11.5112 1.11872 4.12515
11.7266 1.07926 4.084
11.8983 1.13948 4.11801
12.0854 1.13481 4.06768
12.3232 1.11446 4.13406
12.505 1.07973 4.13521
12.7111 1.08719 4.11903
12.9239 1.07419 4.10089
13.1057 1.088 4.11088
13.3504 1.08915 4.06011
13.5161 1.0872 4.10874
13.6904 1.08666 4.0945
13.8641 1.11807 4.11139
14.1439 1.09783 4.11085
14.2811 1.11929 4.14318
14.4897 1.11175 4.10435
14.6663 1.11013 4.10583
14.8835 1.0705 4.0504
15.0896 1.07034 4.1008
15.208 1.06542 4.09465
-15.49 1.213 4.1192
-15.2716 1.28783 4.12071
-15.0785 1.31391 4.09291
-14.9366 1.26806 4.09851
-14.7015 1.30328 4.09457
-14.5211 1.34806 4.08724
-14.289 1.26752 4.14335
-14.0929 1.3162 4.08959
-13.9212 1.3189 4.13477
-13.7123 1.29159 4.08346
-13.5173 1.30518 4.11985
-13.2901 1.26055 4.1178
-13.0752 1.28319 4.09325
-12.8782 1.2867 4.14913
-12.6843 1.30534 4.11595
-12.4837 1.28374 4.11217
-12.2983 1.31363 4.11533
-12.1196 1.30335 4.10579
-11.9165 1.27879 4.09435
-11.7138 1.30741 4.09758
-11.4897 1.30364 4.1183
-11.2629 1.27912 4.09391
-11.1115 1.29331 4.08778
-10.9177 1.30622 4.0935
-10.6723 1.31158 4.09092
-10.4737 1.27663 4.10133
-10.262 1.30386 4.09752
-10.09 1.31463 4.12098
-9.88311 1.31705 4.08563
-9.69351 1.30177 4.11508
-9.48293 1.29641 4.10846
-9.30789 1.27942 4.11174
-9.10313 1.29319 4.1258
-8.88307 1.33486 4.09733
-8.67508 1.28428 4.11962
-8.49825 1.32417 4.11834
-8.29135 1.2872 4.11159
-8.10656 1.33511 4.1367
-7.87847 1.29559 4.10916
-7.70437 1.3079 4.12877
-7.52213 1.27367 4.10167
-7.32088 1.26503 4.10721
-7.07834 1.30587 4.14287
-6.87993 1.2597 4.05776
-6.68581 1.31438 4.10716
-6.4856 1.28012 4.10585
-6.31349 1.27943 4.12883
-6.0755 1.30912 4.1067
-5.93033 1.27119 4.10409
-5.72894 1.3019 4.10519
-5.53388 1.33002 4.09913
-5.34089 1.28371 4.09646
-5.08574 1.28942 4.13666
-4.87473 1.30208 4.16001
-4.67597 1.3069 4.07351
-4.4652 1.31705 4.14665
-4.27939 1.29258 4.11091
-4.11515 1.30163 4.0921
-3.8879 1.33378 4.08918
-3.71776 1.29894 4.1322
-3.49134 1.30136 4.1254
-3.27265 1.29996 4.09296
-3.16283 1.3554 4.05217
-2.91321 1.33805 4.11452
-2.66825 1.28869 4.12926
-2.51093 1.32525 4.10555
-2.28394 1.30976 4.08875
-2.11108 1.28977 4.10543
-1.89243 1.27252 4.10498
-1.72233 1.30833 4.0609
-1.52965 1.26351 4.10069
-1.31936 1.2813 4.11961
-1.13526 1.33108 4.13046
-0.901464 1.3003 4.09749
-0.711473 1.28077 4.1462
-0.492097 1.31606 4.10593
-0.296836 1.30046 4.10826
-0.129692 1.27267 4.12603
0.120581 1.29114 4.10454
0.282736 1.30827 4.12602
0.540018 1.29657 4.11757
0.678775 1.29946 4.09609
0.906998 1.29665 4.11439
1.09657 1.32982 4.15455
1.2724 1.26894 4.10836
1.49432 1.31829 4.07002
1.74653 1.30617 4.09797
1.89772 1.31005 4.08476
2.08974 1.29568 4.10037
2.30454 1.28341 4.11338
2.50775 1.30735 4.09135
2.70692 1.28174 4.12007
2.83298 1.33015 4.07583
3.11211 1.33096 4.11697
3.2788 1.34885 4.09675
3.47704 1.30343 4.11419
3.6774 1.30843 4.10084
3.90922 1.31443 4.07354
4.08726 1.30751 4.10635
4.2722 1.32243 4.13664
4.4982 1.30873 4.15568
4.69326 1.28875 4.12029
4.88317 1.3161 4.11738
5.09424 1.29977 4.08293
5.2727 1.27668 4.12308
5.50784 1.28456 4.10108
5.7208 1.36668 4.17943
5.8746 1.34863 4.11893
6.1829 1.2254 4.1287
6.29408 1.28482 4.10139
6.5013 1.32012 4.11705
6.68955 1.34242 4.1034
6.86864 1.2804 4.1026
7.07351 1.29352 4.11321
7.32257 1.26297 4.12432
7.48205 1.28618 4.11492
7.70378 1.29559 4.1149
7.9187 1.27608 4.08402
8.12052 1.30512 4.11432
8.31821 1.27035 4.11118
8.49335 1.31687 4.08105
8.6863 1.30843 4.11587
8.89778 1.2634 4.08016
9.09226 1.31237 4.09867
9.29186 1.28201 4.08938
9.47549 1.28171 4.10307
9.6615 1.34005 4.0866
9.90391 1.32005 4.09398
10.0866 1.30917 4.14273
10.2748 1.29325 4.04887
10.4805 1.2669 4.1655
10.6767 1.30263 4.07458
10.9136 1.26399 4.13853
11.0965 1.30203 4.11325
11.2974 1.31253 4.11015
11.4971 1.28767 4.11761
11.71 1.27095 4.08748
11.9129 1.30361 4.10857
12.0854 1.26865 4.12879
12.3082 1.28475 4.09394
12.568 1.28895 4.1357
12.6958 1.31375 4.09961
12.8877 1.29392 4.15427
13.1077 1.29515 4.09884
13.2817 1.2921 4.10401
13.5268 1.31577 4.12865
13.6933 1.3049 4.14795
13.9071 1.29603 4.0879
14.1091 1.26102 4.11562
14.3196 1.31006 4.10689
14.4862 1.30852 4.13118
14.697 1.29439 4.06743
14.9241 1.27014 4.1135
15.0992 1.31559 4.12396
15.3583 1.22083 4.13943
-15.254 1.48553 4.11263
-15.093 1.47725 4.13917
-14.8984 1.48007 4.11957
-14.6921 1.48888 4.10059
-14.5235 1.48373 4.10141
-14.2997 1.48542 4.10325
-14.1205 1.4676 4.1412
-13.9247 1.5563 4.11663
-13.7159 1.45311 4.13956
-13.4915 1.45065 4.11485
-13.2945 1.47935 4.1213
-13.0877 1.48768 4.05834
-12.8585 1.50898 4.12667
-12.6802 1.50342 4.1322
-12.5125 1.48526 4.11645
-12.2537 1.52713 4.06815
-12.1022 1.50836 4.09901
-11.88 1.49826 4.15038
-11.7081 1.50827 4.10639
-11.4903 1.488 4.05673
-11.3108 1.53 4.12792
-11.1235 1.50561 4.10016
-10.9415 1.50128 4.11603
-10.6679 1.47267 4.0732
-10.4871 1.48281 4.11479
-10.3105 1.5144 4.11795
-10.0894 1.4955 4.10784
-9.90101 1.50141 4.10747
-9.69074 1.48775 4.0916
-9.4789 1.49178 4.10092
-9.29827 1.48153 4.15075
-9.12152 1.47187 4.11926
-8.90033 1.51157 4.1594
-8.71569 1.54499 4.11141
-8.44077 1.5354 4.13847
-8.32957 1.50434 4.11903
-8.158 1.47295 4.06712
-7.95595 1.51955 4.12755
-7.74147 1.46938 4.08953
-7.5214 1.4107 4.12185
-7.2537 1.4813 4.07216
-7.05622 1.49373 4.1109
-6.86337 1.45953 4.0865
-6.6809 1.4946 4.0538
-6.48243 1.47586 4.09549
-6.0537 1.53695 4.1444
-5.86096 1.44895 4.11041
-5.71634 1.50807 4.08378
-5.51994 1.46566 4.10356
-5.2874 1.48478 4.10658
-5.13126 1.46372 4.11395
-4.91343 1.51525 4.11899
-4.69776 1.49698 4.1225
-4.52355 1.46966 4.11532
-4.27097 1.4422 4.0773
-4.11708 1.48672 4.14849
-3.88252 1.50239 4.09434
-3.7035 1.48073 4.0851
-3.49845 1.54925 4.09855
-3.29434 1.48899 4.12748
-3.09118 1.47587 4.08295
-2.89327 1.50963 4.096
-2.71467 1.42083 4.08063
-2.52012 1.51415 4.05357
-2.27511 1.52443 4.13984
-2.06835 1.52105 4.1049
-1.91118 1.50236 4.13933
-1.6965 1.51522 4.13095
-1.4694 1.4693 4.0519
-1.30267 1.48852 4.11648
-1.10192 1.49624 4.10124
-0.899147 1.4917 4.10631
-0.727159 1.49838 4.09353
-0.498793 1.5122 4.08695
-0.25911 1.48182 4.13068
-0.16003 1.4953 4.0771
0.112354 1.4762 4.119
0.31274 1.51167 4.14057
0.504918 1.4845 4.11118
0.665487 1.46011 4.11952
0.902458 1.5115 4.13733
1.0591 1.48752 4.1208
1.30052 1.4355 4.10215
1.52019 1.49712 4.13035
1.72735 1.47998 4.1437
1.91809 1.53169 4.10297
2.06537 1.47557 4.09002
2.3715 1.585 4.164
2.51241 1.536 4.07874
2.65293 1.4906 4.12767
2.9421 1.55113 4.14693
3.08153 1.47997 4.093
3.30285 1.4962 4.1336
3.57355 1.5255 4.1077
3.66471 1.4727 4.14748
3.93923 1.4966 4.12453
4.1202 1.49203 4.0639
4.30177 1.5187 4.12477
4.5344 1.41285 4.09993
4.71007 1.51478 4.0504
4.89945 1.48501 4.10984
5.0337 1.4122 4.1373
5.3838 1.5781 4.1914
5.49735 1.44105 4.06515
5.68763 1.47711 4.08987
5.911 1.42897 4.10051
6.09231 1.46728 4.11806
6.27045 1.4998 4.1089
6.54153 1.47308 4.12847
6.64145 1.5074 4.07153
6.87603 1.42923 4.12917
7.1872 1.4781 4.1898
7.31925 1.50065 4.0832
7.49143 1.52924 4.03223
7.6909 1.42925 4.07148
7.88877 1.52848 4.16493
8.06075 1.50255 4.11223
8.323 1.47813 4.12247
8.51206 1.48732 4.1139
8.70842 1.49134 4.09314
8.8846 1.45757 4.12323
9.17048 1.48327 4.17988
9.33247 1.45487 4.07923
9.46908 1.48415 4.11785
9.72372 1.50713 4.08744
9.90552 1.46327 4.08733
10.0427 1.4409 4.08715
10.3213 1.4943 4.1319
10.5415 1.52655 4.17865
10.7076 1.47988 4.12086
10.911 1.49365 4.0862
11.0235 1.5409 4.0792
11.3212 1.5135 4.14742
11.498 1.46463 4.08231
11.6673 1.477 4.09837
11.889 1.50611 4.12519
12.0685 1.47353 4.11055
12.2869 1.47932 4.08708
12.4967 1.50213 4.08007
12.753 1.56085 4.01935
12.915 1.4493 4.0194
13.086 1.5065 4.0894
13.3557 1.50257 4.10363
13.463 1.48035 4.13583
13.6888 1.50974 4.08661
13.913 1.48903 4.1497
14.1118 1.52022 4.09815
14.3126 1.52571 4.12313
14.4778 1.46925 4.1068
14.6927 1.47238 4.13345
14.901 1.50104 4.10126
15.0828 1.47983 4.11796
15.233 1.4735 4.1317
-14.148 1.6772 4.09405
-13.4627 1.62793 4.14437
-12.7605 1.63925 4.12205
-12.2855 1.6508 4.16525
-12.1277 1.65517 4.12417
-11.661 1.6108 4.1211
-11.4707 1.6822 4.10125
-11.2397 1.71227 4.1364
-11.016 1.6397 4.1997
-10.874 1.7014 4.1595
-10.6833 1.67023 4.04837
-10.5287 1.6854 4.1503
-10.041 1.63 4.161
-9.49925 1.66023 4.16958
-8.7232 1.6241 4.1431
-8.50916 1.68222 4.10128
-8.0552 1.6314 4.1856
-7.8937 1.6821 4.14015
-7.2974 1.6287 4.1267
-6.70905 1.6409 4.18475
-5.7418 1.64805 4.1199
-5.2098 1.6864 4.1045
-4.9757 1.6206 4.1595
-4.5673 1.6113 4.1187
-4.3265 1.6516 4.1554
-4.0701 1.631 4.0467
-3.91621 1.65731 4.13004
-2.6748 1.6698 4.17985
-2.0099 1.6087 4.0878
-1.6871 1.68453 4.10323
-1.51338 1.64552 4.10529
-0.54201 1.7098 4.07947
-0.3081 1.7152 4.046
-0.1904 1.6069 4.1193
0.49194 1.6654 4.0179
0.69533 1.6479 4.0994
1.844 1.63595 4.1594
2.1483 1.7261 4.1502
2.26685 1.65647 4.1394
2.7042 1.65133 4.10463
2.8117 1.6436 4.1446
4.1117 1.6248 4.1744
4.3011 1.663 4.0326
4.46425 1.6582 4.0465
4.6038 1.6326 4.1161
6.36732 1.67415 4.07277
6.50835 1.6517 4.0864
6.616 1.6639 4.181
6.93372 1.65873 4.15783
7.3958 1.6253 4.0206
7.5648 1.6455 4.0131
7.67462 1.67862 4.11314
7.8216 1.6287 4.027
8.36118 1.64118 4.16652
8.68967 1.64217 4.13863
8.8463 1.6886 4.1975
9.2632 1.6135 4.1987
9.4425 1.6398 4.1658
9.8245 1.6087 4.0801
10.103 1.6394 4.1353
10.247 1.6446 4.0533
10.4868 1.67955 4.09128
10.729 1.6209 4.1828
10.978 1.6823 4.1868
11.077 1.68965 4.129
11.493 1.67585 4.12155
12.302 1.6894 4.16157
12.54 1.621 4.1763
12.829 1.6321 4.1614
14.5767 1.6988 4.1439
14.696 1.6525 4.14455
-13.789 -0.41372 4.3562
-9.7991 -0.4043 4.363
-7.5867 -0.43865 4.3543
-4.083 -0.44275 4.38945
-2.5591 -0.402 4.3988
0.317725 -0.41912 4.2813
2.5822 -0.41769 4.3974
4.1909 -0.40522 4.2257
4.6705 -0.4245 4.24355
6.3658 -0.40522 4.3319
8.6157 -0.40599 4.3842
9.14235 -0.44261 4.2864
9.2309 -0.44261 4.3449
11.0905 -0.48389 4.31808
11.2145 -0.473855 4.34535
13.787 -0.42394 4.2713
13.913 -0.40618 4.244
14.233 -0.41484 4.327
-15.298 -0.297068 4.30887
-15.1162 -0.24485 4.33463
-14.6908 -0.289195 4.33372
-14.4908 -0.262115 4.29852
-14.29 -0.233555 4.2241
-14.057 -0.249335 4.27768
-13.8907 -0.29374 4.33323
-13.6975 -0.278425 4.3635
-13.2943 -0.252955 4.23798
-13.051 -0.298945 4.33485
-12.9525 -0.280045 4.34445
-12.7426 -0.260662 4.28629
-12.529 -0.300727 4.3072
-12.2878 -0.30365 4.3268
-12.0995 -0.2955 4.236
-11.818 -0.20247 4.2415
-11.711 -0.29262 4.3364
-11.532 -0.268068 4.2701
-11.293 -0.271737 4.28983
-11.1116 -0.327834 4.29494
-10.8193 -0.289888 4.3088
-10.5135 -0.257518 4.34697
-10.0544 -0.271421 4.292
-9.90225 -0.25245 4.38475
-9.72123 -0.331803 4.29097
-9.51103 -0.322496 4.32985
-9.27277 -0.308577 4.35523
-9.13625 -0.280787 4.28758
-8.68937 -0.232833 4.33763
-8.41675 -0.257346 4.31964
-8.28507 -0.234657 4.2815
-8.0942 -0.2814 4.30443
-7.82715 -0.305275 4.32275
-7.67479 -0.279429 4.3278
-7.5211 -0.340065 4.375
-7.2726 -0.284823 4.28987
-7.08288 -0.295405 4.31713
-6.87202 -0.279024 4.28732
-6.7437 -0.25885 4.2493
-6.43885 -0.296755 4.2443
-6.2792 -0.315722 4.29432
-6.10413 -0.269053 4.3366
-5.926 -0.26176 4.2802
-5.70131 -0.288183 4.29227
-5.53527 -0.250703 4.29433
-5.3279 -0.26502 4.3522
-5.09524 -0.307703 4.29017
-4.96668 -0.256437 4.31873
-4.7016 -0.299527 4.314
-4.517 -0.21933 4.3109
-4.2285 -0.23731 4.274
-4.13247 -0.245277 4.27847
-3.8248 -0.22102 4.3106
-3.7429 -0.27659 4.37115
-3.50624 -0.283958 4.3214
-3.28983 -0.27175 4.30313
-2.65093 -0.325467 4.304
-2.4899 -0.23499 4.3289
-2.3012 -0.28578 4.2055
-2.10045 -0.29617 4.25255
-1.9434 -0.27672 4.3641
-1.7253 -0.29298 4.25847
-1.4671 -0.270858 4.27126
-1.3239 -0.33804 4.26915
-1.1433 -0.30959 4.3116
-0.891927 -0.30952 4.2544
-0.692149 -0.304321 4.25098
-0.49199 -0.291195 4.28765
-0.0956722 -0.267865 4.33218
0.142147 -0.29383 4.3027
0.262738 -0.289124 4.30666
0.493515 -0.26436 4.2951
0.75 -0.34376 4.3354
0.81247 -0.2032 4.3362
1.1542 -0.20612 4.3251
1.3123 -0.250585 4.3082
1.49735 -0.315572 4.25603
1.8827 -0.266647 4.335
2.1084 -0.29047 4.3341
2.27028 -0.243347 4.3407
2.57135 -0.24332 4.25525
2.73117 -0.340573 4.31083
2.94605 -0.234958 4.28925
3.12107 -0.299802 4.29137
3.34445 -0.28957 4.31125
3.8508 -0.26371 4.3201
4.1212 -0.303291 4.31494
4.3168 -0.325795 4.36352
4.42652 -0.259713 4.28022
4.7659 -0.307967 4.30182
4.8934 -0.298465 4.35178
5.156 -0.24601 4.3321
5.3514 -0.29857 4.30038
5.735 -0.293767 4.262
5.8704 -0.29489 4.2731
6.1401 -0.25989 4.3383
6.3175 -0.27285 4.2908
6.48626 -0.3032 4.35314
6.76192 -0.230112 4.29491
6.8855 -0.22908 4.2961
7.09166 -0.291519 4.29884
7.5204 -0.35006 4.3095
7.89017 -0.286228 4.3217
8.04014 -0.259636 4.29488
8.30003 -0.247117 4.30187
8.53555 -0.37063 4.3703
8.72632 -0.316598 4.30076
8.9481 -0.32531 4.2121
