-0.7 1.2 -0.070465
-0.7 1.3 -0.09418
-0.7 1.4 -0.11856
-0.7 1.5 -0.14337
-0.7 1.6 -0.16835
-0.7 1.7 -0.19327
-0.7 1.8 -0.21785
-0.7 1.9 -0.24188
-0.7 2 -0.26509
-0.7 2.1 -0.28727
-0.7 2.2 -0.30818
-0.7 2.3 -0.32762
-0.7 2.4 -0.3454
-0.7 2.5 -0.36134
-0.7 2.6 -0.37528
-0.7 2.7 -0.38707
-0.7 2.8 -0.39661
-0.7 2.9 -0.40379
-0.7 3 -0.40855
-0.7 3.1 -0.41084
-0.7 3.2 -0.41063
-0.7 3.3 -0.40792
-0.7 3.4 -0.40275
-0.7 3.5 -0.39517
-0.7 3.6 -0.38524
-0.7 3.7 -0.37308
-0.7 3.8 -0.3588
-0.7 3.9 -0.34254
-0.7 4 -0.32447
-0.7 4.1 -0.30476
-0.7 4.2 -0.28362
-0.7 4.3 -0.26125
-0.7 4.4 -0.23789
-0.7 4.5 -0.21375
-0.7 4.6 -0.18909
-0.7 4.7 -0.16415
-0.7 4.8 -0.13918
-0.7 4.9 -0.11443
-0.7 5 -0.090139
-0.7 5.1 -0.06656
-0.7 5.2 -0.043925
-0.7 5.3 -0.022461
-0.7 5.4 -0.0023812
-0.7 5.5 0.016113
-0.7 5.6 0.032837
-0.7 5.7 0.047624
-0.7 5.8 0.060325
-0.7 5.9 0.070815
-0.7 6 0.078988
-0.7 6.1 0.084763
-0.7 6.2 0.088081
-0.7 6.3 0.08891
-0.7 6.4 0.087242
-0.7 6.5 0.083092
-0.7 6.6 0.076504
-0.7 6.7 0.067541
-0.7 6.8 0.056295
-0.7 6.9 0.042877
-0.7 7 0.027421
-0.7 7.1 0.010082
-0.7 7.2 -0.0089666
-0.7 7.3 -0.029535
-0.7 7.4 -0.051418
-0.7 7.5 -0.074396
-0.7 7.6 -0.098239
-0.7 7.7 -0.12271
-0.7 7.8 -0.14757
-0.7 7.9 -0.17255
-0.7 8 -0.19743
-0.7 8.1 -0.22194
-0.7 8.2 -0.24584
-0.7 8.3 -0.2689
-0.7 8.4 -0.29088
-0.7 8.5 -0.31156
-0.7 8.6 -0.33073
-0.7 8.7 -0.34822
-0.7 8.8 -0.36383
-0.7 8.9 -0.37741
-0.7 9 -0.38884
-0.7 9.1 -0.39798
-0.7 9.2 -0.40477
-0.7 9.3 -0.40911
-0.7 9.4 -0.41098
-0.7 9.5 -0.41035
-0.7 9.6 -0.40723
-0.7 9.7 -0.40165
-0.7 9.8 -0.39366
-0.7 9.9 -0.38335
-0.7 10 -0.37082
-0.6 -10 -0.35093
-0.6 -9.9 -0.36346
-0.6 -9.8 -0.37377
-0.6 -9.7 -0.38175
-0.6 -9.6 -0.38733
-0.6 -9.5 -0.39045
-0.6 -9.4 -0.39108
-0.6 -9.3 -0.38922
-0.6 -9.2 -0.38487
-0.6 -9.1 -0.37809
-0.6 -9 -0.36894
-0.6 -8.9 -0.35752
-0.6 -8.8 -0.34393
-0.6 -8.7 -0.32832
-0.6 -8.6 -0.31084
-0.6 -8.5 -0.29166
-0.6 -8.4 -0.27098
-0.6 -8.3 -0.249
-0.6 -8.2 -0.22595
-0.6 -8.1 -0.20205
-0.6 -8 -0.17754
-0.6 -7.9 -0.15266
-0.6 -7.8 -0.12767
-0.6 -7.7 -0.10282
-0.6 -7.6 -0.078346
-0.6 -7.5 -0.054502
-0.6 -7.4 -0.031524
-0.6 -7.3 -0.0096412
-0.6 -7.2 0.010927
-0.6 -7.1 0.029976
-0.6 -7 0.047315
-0.6 -6.9 0.062771
-0.6 -6.8 0.076189
-0.6 -6.7 0.087435
-0.6 -6.6 0.096398
-0.6 -6.5 0.10299
-0.6 -6.4 0.10714
-0.6 -6.3 0.1088
-0.6 -6.2 0.10797
-0.6 -6.1 0.10466
-0.6 -6 0.098882
-0.6 -5.9 0.090709
-0.6 -5.8 0.080219
-0.6 -5.7 0.067518
-0.6 -5.6 0.052731
-0.6 -5.5 0.036007
-0.6 -5.4 0.017513
-0.6 -5.3 -0.002567
-0.6 -5.2 -0.024031
-0.6 -5.1 -0.046666
-0.6 -5 -0.070245
-0.6 -4.9 -0.094533
-0.6 -4.8 -0.11929
-0.6 -4.7 -0.14426
-0.6 -4.6 -0.1692
-0.6 -4.5 -0.19386
-0.6 -4.4 -0.21799
-0.6 -4.3 -0.24136
-0.6 -4.2 -0.26373
-0.6 -4.1 -0.28487
-0.6 -4 -0.30457
-0.6 -3.9 -0.32264
-0.6 -3.8 -0.3389
-0.6 -3.7 -0.35319
-0.6 -3.6 -0.36535
-0.6 -3.5 -0.37527
-0.6 -3.4 -0.38286
-0.6 -3.3 -0.38803
-0.6 -3.2 -0.39073
-0.6 -3.1 -0.39094
-0.6 -3 -0.38866
-0.6 -2.9 -0.3839
-0.6 -2.8 -0.37672
-0.6 -2.7 -0.36718
-0.6 -2.6 -0.35538
-0.6 -2.5 -0.34145
-0.6 -2.4 -0.32551
-0.6 -2.3 -0.30773
-0.6 -2.2 -0.28829
-0.6 -2.1 -0.26737
-0.6 -2 -0.2452
-0.6 -1.9 -0.22198
-0.6 -1.8 -0.19796
-0.6 -1.7 -0.17337
-0.6 -1.6 -0.14846
-0.6 -1.5 -0.12348
-0.6 -1.4 -0.098669
-0.6 -1.3 -0.074286
-0.6 -1.2 -0.050571
-0.6 -1.1 -0.027762
-0.6 -1 -0.006085
-0.6 -0.9 0.014242
-0.6 -0.8 0.033016
-0.6 -0.7 0.05005
-0.6 -0.6 0.065173
-0.6 -0.5 0.078235
-0.6 -0.4 0.089105
-0.6 -0.3 0.097674
-0.6 -0.2 0.10386
-0.6 -0.1 0.10759
-0.6 0 0.10884
-0.6 0.1 0.10759
-0.6 0.2 0.10386
-0.6 0.3 0.097674
-0.6 0.4 0.089105
-0.6 0.5 0.078235
-0.6 0.6 0.065173
-0.6 0.7 0.05005
-0.6 0.8 0.033016
-0.6 0.9 0.014242
-0.6 1 -0.006085
-0.6 1.1 -0.027762
-0.6 1.2 -0.050571
-0.6 1.3 -0.074286
-0.6 1.4 -0.098669
-0.6 1.5 -0.12348
-0.6 1.6 -0.14846
-0.6 1.7 -0.17337
-0.6 1.8 -0.19796
-0.6 1.9 -0.22198
-0.6 2 -0.2452
-0.6 2.1 -0.26737
-0.6 2.2 -0.28829
-0.6 2.3 -0.30773
-0.6 2.4 -0.32551
-0.6 2.5 -0.34145
-0.6 2.6 -0.35538
-0.6 2.7 -0.36718
-0.6 2.8 -0.37672
-0.6 2.9 -0.3839
-0.6 3 -0.38866
-0.6 3.1 -0.39094
-0.6 3.2 -0.39073
-0.6 3.3 -0.38803
-0.6 3.4 -0.38286
-0.6 3.5 -0.37527
-0.6 3.6 -0.36535
-0.6 3.7 -0.35319
-0.6 3.8 -0.3389
-0.6 3.9 -0.32264
-0.6 4 -0.30457
-0.6 4.1 -0.28487
-0.6 4.2 -0.26373
-0.6 4.3 -0.24136
-0.6 4.4 -0.21799
-0.6 4.5 -0.19386
-0.6 4.6 -0.1692
-0.6 4.7 -0.14426
-0.6 4.8 -0.11929
-0.6 4.9 -0.094533
-0.6 5 -0.070245
-0.6 5.1 -0.046666
-0.6 5.2 -0.024031
-0.6 5.3 -0.002567
-0.6 5.4 0.017513
-0.6 5.5 0.036007
-0.6 5.6 0.052731
-0.6 5.7 0.067518
-0.6 5.8 0.080219
-0.6 5.9 0.090709
-0.6 6 0.098882
-0.6 6.1 0.10466
-0.6 6.2 0.10797
-0.6 6.3 0.1088
-0.6 6.4 0.10714
-0.6 6.5 0.10299
-0.6 6.6 0.096398
-0.6 6.7 0.087435
-0.6 6.8 0.076189
-0.6 6.9 0.062771
-0.6 7 0.047315
-0.6 7.1 0.029976
-0.6 7.2 0.010927
-0.6 7.3 -0.0096412
-0.6 7.4 -0.031524
-0.6 7.5 -0.054502
-0.6 7.6 -0.078346
-0.6 7.7 -0.10282
-0.6 7.8 -0.12767
-0.6 7.9 -0.15266
-0.6 8 -0.17754
-0.6 8.1 -0.20205
-0.6 8.2 -0.22595
-0.6 8.3 -0.249
-0.6 8.4 -0.27098
-0.6 8.5 -0.29166
-0.6 8.6 -0.31084
-0.6 8.7 -0.32832
-0.6 8.8 -0.34393
-0.6 8.9 -0.35752
-0.6 9 -0.36894
-0.6 9.1 -0.37809
-0.6 9.2 -0.38487
-0.6 9.3 -0.38922
-0.6 9.4 -0.39108
-0.6 9.5 -0.39045
-0.6 9.6 -0.38733
-0.6 9.7 -0.38175
-0.6 9.8 -0.37377
-0.6 9.9 -0.36346
-0.6 10 -0.35093
-0.5 -10 -0.32962
-0.5 -9.9 -0.34215
-0.5 -9.8 -0.35246
-0.5 -9.7 -0.36045
-0.5 -9.6 -0.36603
-0.5 -9.5 -0.36915
-0.5 -9.4 -0.36978
-0.5 -9.3 -0.36791
-0.5 -9.2 -0.36357
-0.5 -9.1 -0.35679
-0.5 -9 -0.34764
-0.5 -8.9 -0.33622
-0.5 -8.8 -0.32263
-0.5 -8.7 -0.30702
-0.5 -8.6 -0.28954
-0.5 -8.5 -0.27036
-0.5 -8.4 -0.24968
-0.5 -8.3 -0.2277
-0.5 -8.2 -0.20465
-0.5 -8.1 -0.18074
-0.5 -8 -0.15623
-0.5 -7.9 -0.13136
-0.5 -7.8 -0.10637
-0.5 -7.7 -0.081513
-0.5 -7.6 -0.057041
-0.5 -7.5 -0.033198
-0.5 -7.4 -0.01022
-0.5 -7.3 0.011663
-0.5 -7.2 0.032231
-0.5 -7.1 0.05128
-0.5 -7 0.068619
-0.5 -6.9 0.084075
-0.5 -6.8 0.097493
-0.5 -6.7 0.10874
-0.5 -6.6 0.1177
-0.5 -6.5 0.12429
-0.5 -6.4 0.12844
-0.5 -6.3 0.13011
-0.5 -6.2 0.12928
-0.5 -6.1 0.12596
-0.5 -6 0.12019
-0.5 -5.9 0.11201
-0.5 -5.8 0.10152
-0.5 -5.7 0.088822
-0.5 -5.6 0.074035
-0.5 -5.5 0.057311
-0.5 -5.4 0.038817
-0.5 -5.3 0.018737
-0.5 -5.2 -0.0027272
-0.5 -5.1 -0.025362
-0.5 -5 -0.048941
-0.5 -4.9 -0.073228
-0.5 -4.8 -0.097982
-0.5 -4.7 -0.12295
-0.5 -4.6 -0.14789
-0.5 -4.5 -0.17256
-0.5 -4.4 -0.19669
-0.5 -4.3 -0.22006
-0.5 -4.2 -0.24242
-0.5 -4.1 -0.26356
-0.5 -4 -0.28327
-0.5 -3.9 -0.30134
-0.5 -3.8 -0.3176
-0.5 -3.7 -0.33188
-0.5 -3.6 -0.34405
-0.5 -3.5 -0.35397
-0.5 -3.4 -0.36156
-0.5 -3.3 -0.36673
-0.5 -3.2 -0.36943
-0.5 -3.1 -0.36964
-0.5 -3 -0.36735
-0.5 -2.9 -0.3626
-0.5 -2.8 -0.35541
-0.5 -2.7 -0.34587
-0.5 -2.6 -0.33408
-0.5 -2.5 -0.32014
-0.5 -2.4 -0.3042
-0.5 -2.3 -0.28643
-0.5 -2.2 -0.26698
-0.5 -2.1 -0.24607
-0.5 -2 -0.22389
-0.5 -1.9 -0.20068
-0.5 -1.8 -0.17666
-0.5 -1.7 -0.15207
-0.5 -1.6 -0.12716
-0.5 -1.5 -0.10217
-0.5 -1.4 -0.077365
-0.5 -1.3 -0.052982
-0.5 -1.2 -0.029267
-0.5 -1.1 -0.0064574
-0.5 -1 0.015219
-0.5 -0.9 0.035546
-0.5 -0.8 0.05432
-0.5 -0.7 0.071354
-0.5 -0.6 0.086478
-0.5 -0.5 0.099539
-0.5 -0.4 0.11041
-0.5 -0.3 0.11898
-0.5 -0.2 0.12516
-0.5 -0.1 0.12889
-0.5 0 0.13014
-0.5 0.1 0.12889
-0.5 0.2 0.12516
-0.5 0.3 0.11898
-0.5 0.4 0.11041
-0.5 0.5 0.099539
-0.5 0.6 0.086478
-0.5 0.7 0.071354
-0.5 0.8 0.05432
-0.5 0.9 0.035546
-0.5 1 0.015219
-0.5 1.1 -0.0064574
-0.5 1.2 -0.029267
-0.5 1.3 -0.052982
-0.5 1.4 -0.077365
-0.5 1.5 -0.10217
-0.5 1.6 -0.12716
-0.5 1.7 -0.15207
-0.5 1.8 -0.17666
-0.5 1.9 -0.20068
-0.5 2 -0.22389
-0.5 2.1 -0.24607
-0.5 2.2 -0.26698
-0.5 2.3 -0.28643
-0.5 2.4 -0.3042
-0.5 2.5 -0.32014
-0.5 2.6 -0.33408
-0.5 2.7 -0.34587
-0.5 2.8 -0.35541
-0.5 2.9 -0.3626
-0.5 3 -0.36735
-0.5 3.1 -0.36964
-0.5 3.2 -0.36943
-0.5 3.3 -0.36673
-0.5 3.4 -0.36156
-0.5 3.5 -0.35397
-0.5 3.6 -0.34405
-0.5 3.7 -0.33188
-0.5 3.8 -0.3176
-0.5 3.9 -0.30134
-0.5 4 -0.28327
-0.5 4.1 -0.26356
-0.5 4.2 -0.24242
-0.5 4.3 -0.22006
-0.5 4.4 -0.19669
-0.5 4.5 -0.17256
-0.5 4.6 -0.14789
-0.5 4.7 -0.12295
-0.5 4.8 -0.097982
-0.5 4.9 -0.073228
-0.5 5 -0.048941
-0.5 5.1 -0.025362
-0.5 5.2 -0.0027272
-0.5 5.3 0.018737
-0.5 5.4 0.038817
-0.5 5.5 0.057311
-0.5 5.6 0.074035
-0.5 5.7 0.088822
-0.5 5.8 0.10152
-0.5 5.9 0.11201
-0.5 6 0.12019
-0.5 6.1 0.12596
-0.5 6.2 0.12928
-0.5 6.3 0.13011
-0.5 6.4 0.12844
-0.5 6.5 0.12429
-0.5 6.6 0.1177
-0.5 6.7 0.10874
-0.5 6.8 0.097493
-0.5 6.9 0.084075
-0.5 7 0.068619
-0.5 7.1 0.05128
-0.5 7.2 0.032231
-0.5 7.3 0.011663
-0.5 7.4 -0.01022
-0.5 7.5 -0.033198
-0.5 7.6 -0.057041
-0.5 7.7 -0.081513
-0.5 7.8 -0.10637
-0.5 7.9 -0.13136
-0.5 8 -0.15623
-0.5 8.1 -0.18074
-0.5 8.2 -0.20465
-0.5 8.3 -0.2277
-0.5 8.4 -0.24968
-0.5 8.5 -0.27036
-0.5 8.6 -0.28954
-0.5 8.7 -0.30702
-0.5 8.8 -0.32263
-0.5 8.9 -0.33622
-0.5 9 -0.34764
-0.5 9.1 -0.35679
-0.5 9.2 -0.36357
-0.5 9.3 -0.36791
-0.5 9.4 -0.36978
-0.5 9.5 -0.36915
-0.5 9.6 -0.36603
-0.5 9.7 -0.36045
-0.5 9.8 -0.35246
-0.5 9.9 -0.34215
-0.5 10 -0.32962
-0.4 -10 -0.30712
-0.4 -9.9 -0.31965
-0.4 -9.8 -0.32996
-0.4 -9.7 -0.33795
-0.4 -9.6 -0.34353
-0.4 -9.5 -0.34665
-0.4 -9.4 -0.34728
-0.4 -9.3 -0.34541
-0.4 -9.2 -0.34107
-0.4 -9.1 -0.33428
-0.4 -9 -0.32514
-0.4 -8.9 -0.31371
-0.4 -8.8 -0.30013
-0.4 -8.7 -0.28452
-0.4 -8.6 -0.26703
-0.4 -8.5 -0.24786
-0.4 -8.4 -0.22718
-0.4 -8.3 -0.2052
-0.4 -8.2 -0.18214
-0.4 -8.1 -0.15824
-0.4 -8 -0.13373
-0.4 -7.9 -0.10886
-0.4 -7.8 -0.083866
-0.4 -7.7 -0.059011
-0.4 -7.6 -0.03454
-0.4 -7.5 -0.010696
-0.4 -7.4 0.012282
-0.4 -7.3 0.034165
-0.4 -7.2 0.054733
-0.4 -7.1 0.073782
-0.4 -7 0.091121
-0.4 -6.9 0.10658
-0.4 -6.8 0.11999
-0.4 -6.7 0.13124
-0.4 -6.6 0.1402
-0.4 -6.5 0.14679
-0.4 -6.4 0.15094
-0.4 -6.3 0.15261
-0.4 -6.2 0.15178
-0.4 -6.1 0.14846
-0.4 -6 0.14269
-0.4 -5.9 0.13452
-0.4 -5.8 0.12403
-0.4 -5.7 0.11132
-0.4 -5.6 0.096537
-0.4 -5.5 0.079813
-0.4 -5.4 0.061319
-0.4 -5.3 0.041239
-0.4 -5.2 0.019775
-0.4 -5.1 -0.0028601
-0.4 -5 -0.026439
-0.4 -4.9 -0.050726
-0.4 -4.8 -0.07548
-0.4 -4.7 -0.10045
-0.4 -4.6 -0.12539
-0.4 -4.5 -0.15005
-0.4 -4.4 -0.17419
-0.4 -4.3 -0.19755
-0.4 -4.2 -0.21992
-0.4 -4.1 -0.24106
-0.4 -4 -0.26077
-0.4 -3.9 -0.27884
-0.4 -3.8 -0.2951
-0.4 -3.7 -0.30938
-0.4 -3.6 -0.32154
-0.4 -3.5 -0.33147
-0.4 -3.4 -0.33905
-0.4 -3.3 -0.34422
-0.4 -3.2 -0.34693
-0.4 -3.1 -0.34714
-0.4 -3 -0.34485
-0.4 -2.9 -0.34009
-0.4 -2.8 -0.33291
-0.4 -2.7 -0.32337
-0.4 -2.6 -0.31158
-0.4 -2.5 -0.29764
-0.4 -2.4 -0.2817
-0.4 -2.3 -0.26392
-0.4 -2.2 -0.24448
-0.4 -2.1 -0.22357
-0.4 -2 -0.20139
-0.4 -1.9 -0.17818
-0.4 -1.8 -0.15416
-0.4 -1.7 -0.12957
-0.4 -1.6 -0.10465
-0.4 -1.5 -0.07967
-0.4 -1.4 -0.054863
-0.4 -1.3 -0.03048
-0.4 -1.2 -0.0067651
-0.4 -1.1 0.016044
-0.4 -1 0.037721
-0.4 -0.9 0.058048
-0.4 -0.8 0.076822
-0.4 -0.7 0.093856
-0.4 -0.6 0.10898
-0.4 -0.5 0.12204
-0.4 -0.4 0.13291
-0.4 -0.3 0.14148
-0.4 -0.2 0.14766
-0.4 -0.1 0.1514
-0.4 0 0.15265
-0.4 0.1 0.1514
-0.4 0.2 0.14766
-0.4 0.3 0.14148
-0.4 0.4 0.13291
-0.4 0.5 0.12204
-0.4 0.6 0.10898
-0.4 0.7 0.093856
-0.4 0.8 0.076822
-0.4 0.9 0.058048
-0.4 1 0.037721
-0.4 1.1 0.016044
-0.4 1.2 -0.0067651
-0.4 1.3 -0.03048
-0.4 1.4 -0.054863
-0.4 1.5 -0.07967
-0.4 1.6 -0.10465
-0.4 1.7 -0.12957
-0.4 1.8 -0.15416
-0.4 1.9 -0.17818
-0.4 2 -0.20139
-0.4 2.1 -0.22357
-0.4 2.2 -0.24448
-0.4 2.3 -0.26392
-0.4 2.4 -0.2817
-0.4 2.5 -0.29764
-0.4 2.6 -0.31158
-0.4 2.7 -0.32337
-0.4 2.8 -0.33291
-0.4 2.9 -0.34009
-0.4 3 -0.34485
-0.4 3.1 -0.34714
-0.4 3.2 -0.34693
-0.4 3.3 -0.34422
-0.4 3.4 -0.33905
-0.4 3.5 -0.33147
-0.4 3.6 -0.32154
-0.4 3.7 -0.30938
-0.4 3.8 -0.2951
-0.4 3.9 -0.27884
-0.4 4 -0.26077
-0.4 4.1 -0.24106
-0.4 4.2 -0.21992
-0.4 4.3 -0.19755
-0.4 4.4 -0.17419
-0.4 4.5 -0.15005
-0.4 4.6 -0.12539
-0.4 4.7 -0.10045
-0.4 4.8 -0.07548
-0.4 4.9 -0.050726
-0.4 5 -0.026439
-0.4 5.1 -0.0028601
-0.4 5.2 0.019775
-0.4 5.3 0.041239
-0.4 5.4 0.061319
-0.4 5.5 0.079813
-0.4 5.6 0.096537
-0.4 5.7 0.11132
-0.4 5.8 0.12403
-0.4 5.9 0.13452
-0.4 6 0.14269
-0.4 6.1 0.14846
-0.4 6.2 0.15178
-0.4 6.3 0.15261
-0.4 6.4 0.15094
-0.4 6.5 0.14679
-0.4 6.6 0.1402
-0.4 6.7 0.13124
-0.4 6.8 0.11999
-0.4 6.9 0.10658
-0.4 7 0.091121
-0.4 7.1 0.073782
-0.4 7.2 0.054733
-0.4 7.3 0.034165
-0.4 7.4 0.012282
-0.4 7.5 -0.010696
-0.4 7.6 -0.03454
-0.4 7.7 -0.059011
-0.4 7.8 -0.083866
-0.4 7.9 -0.10886
-0.4 8 -0.13373
-0.4 8.1 -0.15824
-0.4 8.2 -0.18214
-0.4 8.3 -0.2052
-0.4 8.4 -0.22718
-0.4 8.5 -0.24786
-0.4 8.6 -0.26703
-0.4 8.7 -0.28452
-0.4 8.8 -0.30013
-0.4 8.9 -0.31371
-0.4 9 -0.32514
-0.4 9.1 -0.33428
-0.4 9.2 -0.34107
-0.4 9.3 -0.34541
-0.4 9.4 -0.34728
-0.4 9.5 -0.34665
-0.4 9.6 -0.34353
-0.4 9.7 -0.33795
-0.4 9.8 -0.32996
-0.4 9.9 -0.31965
-0.4 10 -0.30712
-0.3 -10 -0.28365
-0.3 -9.9 -0.29618
-0.3 -9.8 -0.30649
-0.3 -9.7 -0.31447
-0.3 -9.6 -0.32005
-0.3 -9.5 -0.32317
-0.3 -9.4 -0.3238
-0.3 -9.3 -0.32194
-0.3 -9.2 -0.31759
-0.3 -9.1 -0.31081
-0.3 -9 -0.30166
-0.3 -8.9 -0.29024
-0.3 -8.8 -0.27665
-0.3 -8.7 -0.26104
-0.3 -8.6 -0.24356
-0.3 -8.5 -0.22438
-0.3 -8.4 -0.2037
-0.3 -8.3 -0.18172
-0.3 -8.2 -0.15867
-0.3 -8.1 -0.13477
-0.3 -8 -0.11026
-0.3 -7.9 -0.085381
-0.3 -7.8 -0.060391
-0.3 -7.7 -0.035537
-0.3 -7.6 -0.011065
-0.3 -7.5 0.012779
-0.3 -7.4 0.035757
-0.3 -7.3 0.057639
-0.3 -7.2 0.078208
-0.3 -7.1 0.097257
-0.3 -7 0.1146
-0.3 -6.9 0.13005
-0.3 -6.8 0.14347
-0.3 -6.7 0.15472
-0.3 -6.6 0.16368
-0.3 -6.5 0.17027
-0.3 -6.4 0.17442
-0.3 -6.3 0.17608
-0.3 -6.2 0.17526
-0.3 -6.1 0.17194
-0.3 -6 0.16616
-0.3 -5.9 0.15799
-0.3 -5.8 0.1475
-0.3 -5.7 0.1348
-0.3 -5.6 0.12001
-0.3 -5.5 0.10329
-0.3 -5.4 0.084793
-0.3 -5.3 0.064714
-0.3 -5.2 0.043249
-0.3 -5.1 0.020614
-0.3 -5 -0.0029645
-0.3 -4.9 -0.027252
-0.3 -4.8 -0.052005
-0.3 -4.7 -0.076977
-0.3 -4.6 -0.10192
-0.3 -4.5 -0.12658
-0.3 -4.4 -0.15071
-0.3 -4.3 -0.17408
-0.3 -4.2 -0.19645
-0.3 -4.1 -0.21759
-0.3 -4 -0.23729
-0.3 -3.9 -0.25536
-0.3 -3.8 -0.27162
-0.3 -3.7 -0.28591
-0.3 -3.6 -0.29807
-0.3 -3.5 -0.30799
-0.3 -3.4 -0.31558
-0.3 -3.3 -0.32075
-0.3 -3.2 -0.32345
-0.3 -3.1 -0.32366
-0.3 -3 -0.32138
-0.3 -2.9 -0.31662
-0.3 -2.8 -0.30944
-0.3 -2.7 -0.2999
-0.3 -2.6 -0.2881
-0.3 -2.5 -0.27417
-0.3 -2.4 -0.25823
-0.3 -2.3 -0.24045
-0.3 -2.2 -0.22101
-0.3 -2.1 -0.20009
-0.3 -2 -0.17792
-0.3 -1.9 -0.1547
-0.3 -1.8 -0.13068
-0.3 -1.7 -0.10609
-0.3 -1.6 -0.08118
-0.3 -1.5 -0.056196
-0.3 -1.4 -0.031388
-0.3 -1.3 -0.0070053
-0.3 -1.2 0.016709
-0.3 -1.1 0.039519
-0.3 -1 0.061196
-0.3 -0.9 0.081522
-0.3 -0.8 0.1003
-0.3 -0.7 0.11733
-0.3 -0.6 0.13245
-0.3 -0.5 0.14552
-0.3 -0.4 0.15639
-0.3 -0.3 0.16495
-0.3 -0.2 0.17114
-0.3 -0.1 0.17487
-0.3 0 0.17612
-0.3 0.1 0.17487
-0.3 0.2 0.17114
-0.3 0.3 0.16495
-0.3 0.4 0.15639
-0.3 0.5 0.14552
-0.3 0.6 0.13245
-0.3 0.7 0.11733
-0.3 0.8 0.1003
-0.3 0.9 0.081522
-0.3 1 0.061196
-0.3 1.1 0.039519
-0.3 1.2 0.016709
-0.3 1.3 -0.0070053
-0.3 1.4 -0.031388
-0.3 1.5 -0.056196
-0.3 1.6 -0.08118
-0.3 1.7 -0.10609
-0.3 1.8 -0.13068
-0.3 1.9 -0.1547
-0.3 2 -0.17792
-0.3 2.1 -0.20009
-0.3 2.2 -0.22101
-0.3 2.3 -0.24045
-0.3 2.4 -0.25823
-0.3 2.5 -0.27417
-0.3 2.6 -0.2881
-0.3 2.7 -0.2999
-0.3 2.8 -0.30944
-0.3 2.9 -0.31662
-0.3 3 -0.32138
-0.3 3.1 -0.32366
-0.3 3.2 -0.32345
-0.3 3.3 -0.32075
-0.3 3.4 -0.31558
-0.3 3.5 -0.30799
-0.3 3.6 -0.29807
-0.3 3.7 -0.28591
-0.3 3.8 -0.27162
-0.3 3.9 -0.25536
-0.3 4 -0.23729
-0.3 4.1 -0.21759
-0.3 4.2 -0.19645
-0.3 4.3 -0.17408
-0.3 4.4 -0.15071
-0.3 4.5 -0.12658
-0.3 4.6 -0.10192
-0.3 4.7 -0.076977
-0.3 4.8 -0.052005
-0.3 4.9 -0.027252
-0.3 5 -0.0029645
-0.3 5.1 0.020614
-0.3 5.2 0.043249
-0.3 5.3 0.064714
-0.3 5.4 0.084793
-0.3 5.5 0.10329
-0.3 5.6 0.12001
-0.3 5.7 0.1348
-0.3 5.8 0.1475
-0.3 5.9 0.15799
-0.3 6 0.16616
-0.3 6.1 0.17194
-0.3 6.2 0.17526
-0.3 6.3 0.17608
-0.3 6.4 0.17442
-0.3 6.5 0.17027
-0.3 6.6 0.16368
-0.3 6.7 0.15472
-0.3 6.8 0.14347
-0.3 6.9 0.13005
-0.3 7 0.1146
-0.3 7.1 0.097257
-0.3 7.2 0.078208
-0.3 7.3 0.057639
-0.3 7.4 0.035757
-0.3 7.5 0.012779
-0.3 7.6 -0.011065
-0.3 7.7 -0.035537
-0.3 7.8 -0.060391
-0.3 7.9 -0.085381
-0.3 8 -0.11026
-0.3 8.1 -0.13477
-0.3 8.2 -0.15867
-0.3 8.3 -0.18172
-0.3 8.4 -0.2037
-0.3 8.5 -0.22438
-0.3 8.6 -0.24356
-0.3 8.7 -0.26104
-0.3 8.8 -0.27665
-0.3 8.9 -0.29024
-0.3 9 -0.30166
-0.3 9.1 -0.31081
-0.3 9.2 -0.31759
-0.3 9.3 -0.32194
-0.3 9.4 -0.3238
-0.3 9.5 -0.32317
-0.3 9.6 -0.32005
-0.3 9.7 -0.31447
-0.3 9.8 -0.30649
-0.3 9.9 -0.29618
-0.3 10 -0.28365
-0.2 -10 -0.25944
-0.2 -9.9 -0.27197
-0.2 -9.8 -0.28227
-0.2 -9.7 -0.29026
-0.2 -9.6 -0.29584
-0.2 -9.5 -0.29896
-0.2 -9.4 -0.29959
-0.2 -9.3 -0.29772
-0.2 -9.2 -0.29338
-0.2 -9.1 -0.2866
-0.2 -9 -0.27745
-0.2 -8.9 -0.26603
-0.2 -8.8 -0.25244
-0.2 -8.7 -0.23683
-0.2 -8.6 -0.21935
-0.2 -8.5 -0.20017
-0.2 -8.4 -0.17949
-0.2 -8.3 -0.15751
-0.2 -8.2 -0.13446
-0.2 -8.1 -0.11055
-0.2 -8 -0.086042
-0.2 -7.9 -0.061168
-0.2 -7.8 -0.036178
-0.2 -7.7 -0.011324
-0.2 -7.6 0.013148
-0.2 -7.5 0.036991
-0.2 -7.4 0.059969
-0.2 -7.3 0.081852
-0.2 -7.2 0.10242
-0.2 -7.1 0.12147
-0.2 -7 0.13881
-0.2 -6.9 0.15426
-0.2 -6.8 0.16768
-0.2 -6.7 0.17893
-0.2 -6.6 0.18789
-0.2 -6.5 0.19448
-0.2 -6.4 0.19863
-0.2 -6.3 0.2003
-0.2 -6.2 0.19947
-0.2 -6.1 0.19615
-0.2 -6 0.19038
-0.2 -5.9 0.1822
-0.2 -5.8 0.17171
-0.2 -5.7 0.15901
-0.2 -5.6 0.14422
-0.2 -5.5 0.1275
-0.2 -5.4 0.10901
-0.2 -5.3 0.088926
-0.2 -5.2 0.067462
-0.2 -5.1 0.044827
-0.2 -5 0.021248
-0.2 -4.9 -0.0030392
-0.2 -4.8 -0.027793
-0.2 -4.7 -0.052764
-0.2 -4.6 -0.077705
-0.2 -4.5 -0.10237
-0.2 -4.4 -0.1265
-0.2 -4.3 -0.14987
-0.2 -4.2 -0.17223
-0.2 -4.1 -0.19337
-0.2 -4 -0.21308
-0.2 -3.9 -0.23115
-0.2 -3.8 -0.24741
-0.2 -3.7 -0.26169
-0.2 -3.6 -0.27386
-0.2 -3.5 -0.28378
-0.2 -3.4 -0.29137
-0.2 -3.3 -0.29654
-0.2 -3.2 -0.29924
-0.2 -3.1 -0.29945
-0.2 -3 -0.29717
-0.2 -2.9 -0.29241
-0.2 -2.8 -0.28522
-0.2 -2.7 -0.27569
-0.2 -2.6 -0.26389
-0.2 -2.5 -0.24995
-0.2 -2.4 -0.23402
-0.2 -2.3 -0.21624
-0.2 -2.2 -0.19679
-0.2 -2.1 -0.17588
-0.2 -2 -0.1537
-0.2 -1.9 -0.13049
-0.2 -1.8 -0.10647
-0.2 -1.7 -0.081878
-0.2 -1.6 -0.056967
-0.2 -1.5 -0.031983
-0.2 -1.4 -0.0071755
-0.2 -1.3 0.017207
-0.2 -1.2 0.040922
-0.2 -1.1 0.063732
-0.2 -1 0.085408
-0.2 -0.9 0.10574
-0.2 -0.8 0.12451
-0.2 -0.7 0.14154
-0.2 -0.6 0.15667
-0.2 -0.5 0.16973
-0.2 -0.4 0.1806
-0.2 -0.3 0.18917
-0.2 -0.2 0.19535
-0.2 -0.1 0.19908
-0.2 0 0.20033
-0.2 0.1 0.19908
-0.2 0.2 0.19535
-0.2 0.3 0.18917
-0.2 0.4 0.1806
-0.2 0.5 0.16973
-0.2 0.6 0.15667
-0.2 0.7 0.14154
-0.2 0.8 0.12451
-0.2 0.9 0.10574
-0.2 1 0.085408
-0.2 1.1 0.063732
-0.2 1.2 0.040922
-0.2 1.3 0.017207
-0.2 1.4 -0.0071755
-0.2 1.5 -0.031983
-0.2 1.6 -0.056967
-0.2 1.7 -0.081878
-0.2 1.8 -0.10647
-0.2 1.9 -0.13049
-0.2 2 -0.1537
-0.2 2.1 -0.17588
-0.2 2.2 -0.19679
-0.2 2.3 -0.21624
-0.2 2.4 -0.23402
-0.2 2.5 -0.24995
-0.2 2.6 -0.26389
-0.2 2.7 -0.27569
-0.2 2.8 -0.28522
-0.2 2.9 -0.29241
-0.2 3 -0.29717
-0.2 3.1 -0.29945
-0.2 3.2 -0.29924
-0.2 3.3 -0.29654
-0.2 3.4 -0.29137
-0.2 3.5 -0.28378
-0.2 3.6 -0.27386
-0.2 3.7 -0.26169
-0.2 3.8 -0.24741
-0.2 3.9 -0.23115
-0.2 4 -0.21308
-0.2 4.1 -0.19337
-0.2 4.2 -0.17223
-0.2 4.3 -0.14987
-0.2 4.4 -0.1265
-0.2 4.5 -0.10237
-0.2 4.6 -0.077705
-0.2 4.7 -0.052764
-0.2 4.8 -0.027793
-0.2 4.9 -0.0030392
-0.2 5 0.021248
-0.2 5.1 0.044827
-0.2 5.2 0.067462
-0.2 5.3 0.088926
-0.2 5.4 0.10901
-0.2 5.5 0.1275
-0.2 5.6 0.14422
-0.2 5.7 0.15901
-0.2 5.8 0.17171
-0.2 5.9 0.1822
-0.2 6 0.19038
-0.2 6.1 0.19615
-0.2 6.2 0.19947
-0.2 6.3 0.2003
-0.2 6.4 0.19863
-0.2 6.5 0.19448
-0.2 6.6 0.18789
-0.2 6.7 0.17893
-0.2 6.8 0.16768
-0.2 6.9 0.15426
-0.2 7 0.13881
-0.2 7.1 0.12147
-0.2 7.2 0.10242
-0.2 7.3 0.081852
-0.2 7.4 0.059969
-0.2 7.5 0.036991
-0.2 7.6 0.013148
-0.2 7.7 -0.011324
-0.2 7.8 -0.036178
-0.2 7.9 -0.061168
-0.2 8 -0.086042
-0.2 8.1 -0.11055
-0.2 8.2 -0.13446
-0.2 8.3 -0.15751
-0.2 8.4 -0.17949
-0.2 8.5 -0.20017
-0.2 8.6 -0.21935
-0.2 8.7 -0.23683
-0.2 8.8 -0.25244
-0.2 8.9 -0.26603
-0.2 9 -0.27745
-0.2 9.1 -0.2866
-0.2 9.2 -0.29338
-0.2 9.3 -0.29772
-0.2 9.4 -0.29959
-0.2 9.5 -0.29896
-0.2 9.6 -0.29584
-0.2 9.7 -0.29026
-0.2 9.8 -0.28227
-0.2 9.9 -0.27197
-0.2 10 -0.25944
-0.1 -10 -0.23473
-0.1 -9.9 -0.24726
-0.1 -9.8 -0.25756
-0.1 -9.7 -0.26555
-0.1 -9.6 -0.27113
-0.1 -9.5 -0.27425
-0.1 -9.4 -0.27488
-0.1 -9.3 -0.27301
-0.1 -9.2 -0.26867
-0.1 -9.1 -0.26189
-0.1 -9 -0.25274
-0.1 -8.9 -0.24132
-0.1 -8.8 -0.22773
-0.1 -8.7 -0.21212
-0.1 -8.6 -0.19464
-0.1 -8.5 -0.17546
-0.1 -8.4 -0.15478
-0.1 -8.3 -0.1328
-0.1 -8.2 -0.10975
-0.1 -8.1 -0.085844
-0.1 -8 -0.061333
-0.1 -7.9 -0.036459
-0.1 -7.8 -0.011469
-0.1 -7.7 0.013385
-0.1 -7.6 0.037857
-0.1 -7.5 0.0617
-0.1 -7.4 0.084678
-0.1 -7.3 0.10656
-0.1 -7.2 0.12713
-0.1 -7.1 0.14618
-0.1 -7 0.16352
-0.1 -6.9 0.17897
-0.1 -6.8 0.19239
-0.1 -6.7 0.20364
-0.1 -6.6 0.2126
-0.1 -6.5 0.21919
-0.1 -6.4 0.22334
-0.1 -6.3 0.22501
-0.1 -6.2 0.22418
-0.1 -6.1 0.22086
-0.1 -6 0.21508
-0.1 -5.9 0.20691
-0.1 -5.8 0.19642
-0.1 -5.7 0.18372
-0.1 -5.6 0.16893
-0.1 -5.5 0.15221
-0.1 -5.4 0.13371
-0.1 -5.3 0.11364
-0.1 -5.2 0.092171
-0.1 -5.1 0.069536
-0.1 -5 0.045957
-0.1 -4.9 0.02167
-0.1 -4.8 -0.0030836
-0.1 -4.7 -0.028056
-0.1 -4.6 -0.052996
-0.1 -4.5 -0.077657
-0.1 -4.4 -0.10179
-0.1 -4.3 -0.12516
-0.1 -4.2 -0.14752
-0.1 -4.1 -0.16866
-0.1 -4 -0.18837
-0.1 -3.9 -0.20644
-0.1 -3.8 -0.2227
-0.1 -3.7 -0.23698
-0.1 -3.6 -0.24915
-0.1 -3.5 -0.25907
-0.1 -3.4 -0.26666
-0.1 -3.3 -0.27183
-0.1 -3.2 -0.27453
-0.1 -3.1 -0.27474
-0.1 -3 -0.27246
-0.1 -2.9 -0.2677
-0.1 -2.8 -0.26051
-0.1 -2.7 -0.25098
-0.1 -2.6 -0.23918
-0.1 -2.5 -0.22524
-0.1 -2.4 -0.20931
-0.1 -2.3 -0.19153
-0.1 -2.2 -0.17208
-0.1 -2.1 -0.15117
-0.1 -2 -0.129
-0.1 -1.9 -0.10578
-0.1 -1.8 -0.081759
-0.1 -1.7 -0.057169
-0.1 -1.6 -0.032258
-0.1 -1.5 -0.0072741
-0.1 -1.4 0.017533
-0.1 -1.3 0.041916
-0.1 -1.2 0.065631
-0.1 -1.1 0.088441
-0.1 -1 0.11012
-0.1 -0.9 0.13044
-0.1 -0.8 0.14922
-0.1 -0.7 0.16625
-0.1 -0.6 0.18138
-0.1 -0.5 0.19444
-0.1 -0.4 0.20531
-0.1 -0.3 0.21388
-0.1 -0.2 0.22006
-0.1 -0.1 0.22379
-0.1 0 0.22504
-0.1 0.1 0.22379
-0.1 0.2 0.22006
-0.1 0.3 0.21388
-0.1 0.4 0.20531
-0.1 0.5 0.19444
-0.1 0.6 0.18138
-0.1 0.7 0.16625
-0.1 0.8 0.14922
-0.1 0.9 0.13044
-0.1 1 0.11012
-0.1 1.1 0.088441
-0.1 1.2 0.065631
-0.1 1.3 0.041916
-0.1 1.4 0.017533
-0.1 1.5 -0.0072741
-0.1 1.6 -0.032258
-0.1 1.7 -0.057169
-0.1 1.8 -0.081759
-0.1 1.9 -0.10578
-0.1 2 -0.129
-0.1 2.1 -0.15117
-0.1 2.2 -0.17208
-0.1 2.3 -0.19153
-0.1 2.4 -0.20931
-0.1 2.5 -0.22524
-0.1 2.6 -0.23918
-0.1 2.7 -0.25098
-0.1 2.8 -0.26051
-0.1 2.9 -0.2677
-0.1 3 -0.27246
-0.1 3.1 -0.27474
-0.1 3.2 -0.27453
-0.1 3.3 -0.27183
-0.1 3.4 -0.26666
-0.1 3.5 -0.25907
-0.1 3.6 -0.24915
-0.1 3.7 -0.23698
-0.1 3.8 -0.2227
-0.1 3.9 -0.20644
-0.1 4 -0.18837
-0.1 4.1 -0.16866
-0.1 4.2 -0.14752
-0.1 4.3 -0.12516
-0.1 4.4 -0.10179
-0.1 4.5 -0.077657
-0.1 4.6 -0.052996
-0.1 4.7 -0.028056
-0.1 4.8 -0.0030836
-0.1 4.9 0.02167
-0.1 5 0.045957
-0.1 5.1 0.069536
-0.1 5.2 0.092171
-0.1 5.3 0.11364
-0.1 5.4 0.13371
-0.1 5.5 0.15221
-0.1 5.6 0.16893
-0.1 5.7 0.18372
-0.1 5.8 0.19642
-0.1 5.9 0.20691
-0.1 6 0.21508
-0.1 6.1 0.22086
-0.1 6.2 0.22418
-0.1 6.3 0.22501
-0.1 6.4 0.22334
-0.1 6.5 0.21919
-0.1 6.6 0.2126
-0.1 6.7 0.20364
-0.1 6.8 0.19239
-0.1 6.9 0.17897
-0.1 7 0.16352
-0.1 7.1 0.14618
-0.1 7.2 0.12713
-0.1 7.3 0.10656
-0.1 7.4 0.084678
-0.1 7.5 0.0617
-0.1 7.6 0.037857
-0.1 7.7 0.013385
-0.1 7.8 -0.011469
-0.1 7.9 -0.036459
-0.1 8 -0.061333
-0.1 8.1 -0.085844
-0.1 8.2 -0.10975
-0.1 8.3 -0.1328
-0.1 8.4 -0.15478
-0.1 8.5 -0.17546
-0.1 8.6 -0.19464
-0.1 8.7 -0.21212
-0.1 8.8 -0.22773
-0.1 8.9 -0.24132
-0.1 9 -0.25274
-0.1 9.1 -0.26189
-0.1 9.2 -0.26867
-0.1 9.3 -0.27301
-0.1 9.4 -0.27488
-0.1 9.5 -0.27425
-0.1 9.6 -0.27113
-0.1 9.7 -0.26555
-0.1 9.8 -0.25756
-0.1 9.9 -0.24726
-0.1 10 -0.23473
0 -10 -0.20977
0 -9.9 -0.2223
0 -9.8 -0.23261
0 -9.7 -0.24059
0 -9.6 -0.24617
0 -9.5 -0.24929
0 -9.4 -0.24992
0 -9.3 -0.24806
0 -9.2 -0.24371
0 -9.1 -0.23693
0 -9 -0.22778
0 -8.9 -0.21636
0 -8.8 -0.20277
0 -8.7 -0.18716
0 -8.6 -0.16968
0 -8.5 -0.1505
0 -8.4 -0.12982
0 -8.3 -0.10784
0 -8.2 -0.084789
0 -8.1 -0.060886
0 -8 -0.036375
0 -7.9 -0.011501
0 -7.8 0.013489
0 -7.7 0.038343
0 -7.6 0.062815
0 -7.5 0.086659
0 -7.4 0.10964
0 -7.3 0.13152
0 -7.2 0.15209
0 -7.1 0.17114
0 -7 0.18848
0 -6.9 0.20393
0 -6.8 0.21735
0 -6.7 0.2286
0 -6.6 0.23756
0 -6.5 0.24415
0 -6.4 0.2483
0 -6.3 0.24996
0 -6.2 0.24914
0 -6.1 0.24582
0 -6 0.24004
0 -5.9 0.23187
0 -5.8 0.22138
0 -5.7 0.20868
0 -5.6 0.19389
0 -5.5 0.17717
0 -5.4 0.15867
0 -5.3 0.13859
0 -5.2 0.11713
0 -5.1 0.094494
0 -5 0.070916
0 -4.9 0.046628
0 -4.8 0.021875
0 -4.7 -0.0030972
0 -4.6 -0.028038
0 -4.5 -0.052699
0 -4.4 -0.076833
0 -4.3 -0.1002
0 -4.2 -0.12257
0 -4.1 -0.14371
0 -4 -0.16341
0 -3.9 -0.18148
0 -3.8 -0.19774
0 -3.7 -0.21203
0 -3.6 -0.22419
0 -3.5 -0.23411
0 -3.4 -0.2417
0 -3.3 -0.24687
0 -3.2 -0.24957
0 -3.1 -0.24978
0 -3 -0.2475
0 -2.9 -0.24274
0 -2.8 -0.23556
0 -2.7 -0.22602
0 -2.6 -0.21422
0 -2.5 -0.20029
0 -2.4 -0.18435
0 -2.3 -0.16657
0 -2.2 -0.14713
0 -2.1 -0.12621
0 -2 -0.10404
0 -1.9 -0.080822
0 -1.8 -0.056801
0 -1.7 -0.032211
0 -1.6 -0.0072999
0 -1.5 0.017684
0 -1.4 0.042492
0 -1.3 0.066875
0 -1.2 0.090589
0 -1.1 0.1134
0 -1 0.13508
0 -0.9 0.1554
0 -0.8 0.17418
0 -0.7 0.19121
0 -0.6 0.20633
0 -0.5 0.2194
0 -0.4 0.23027
0 -0.3 0.23883
0 -0.2 0.24502
0 -0.1 0.24875
0 0 0.25
0 0.1 0.24875
0 0.2 0.24502
0 0.3 0.23883
0 0.4 0.23027
0 0.5 0.2194
0 0.6 0.20633
0 0.7 0.19121
0 0.8 0.17418
0 0.9 0.1554
0 1 0.13508
0 1.1 0.1134
0 1.2 0.090589
0 1.3 0.066875
0 1.4 0.042492
0 1.5 0.017684
0 1.6 -0.0072999
0 1.7 -0.032211
0 1.8 -0.056801
0 1.9 -0.080822
0 2 -0.10404
0 2.1 -0.12621
0 2.2 -0.14713
0 2.3 -0.16657
0 2.4 -0.18435
0 2.5 -0.20029
0 2.6 -0.21422
0 2.7 -0.22602
0 2.8 -0.23556
0 2.9 -0.24274
0 3 -0.2475
0 3.1 -0.24978
0 3.2 -0.24957
0 3.3 -0.24687
0 3.4 -0.2417
0 3.5 -0.23411
0 3.6 -0.22419
0 3.7 -0.21203
0 3.8 -0.19774
0 3.9 -0.18148
0 4 -0.16341
0 4.1 -0.14371
0 4.2 -0.12257
0 4.3 -0.1002
0 4.4 -0.076833
0 4.5 -0.052699
0 4.6 -0.028038
0 4.7 -0.0030972
0 4.8 0.021875
0 4.9 0.046628
0 5 0.070916
0 5.1 0.094494
0 5.2 0.11713
0 5.3 0.13859
0 5.4 0.15867
0 5.5 0.17717
0 5.6 0.19389
0 5.7 0.20868
0 5.8 0.22138
0 5.9 0.23187
0 6 0.24004
0 6.1 0.24582
0 6.2 0.24914
0 6.3 0.24996
0 6.4 0.2483
0 6.5 0.24415
0 6.6 0.23756
0 6.7 0.2286
0 6.8 0.21735
0 6.9 0.20393
0 7 0.18848
0 7.1 0.17114
0 7.2 0.15209
0 7.3 0.13152
0 7.4 0.10964
0 7.5 0.086659
0 7.6 0.062815
0 7.7 0.038343
0 7.8 0.013489
0 7.9 -0.011501
0 8 -0.036375
0 8.1 -0.060886
0 8.2 -0.084789
0 8.3 -0.10784
0 8.4 -0.12982
0 8.5 -0.1505
0 8.6 -0.16968
0 8.7 -0.18716
0 8.8 -0.20277
0 8.9 -0.21636
0 9 -0.22778
0 9.1 -0.23693
0 9.2 -0.24371
0 9.3 -0.24806
0 9.4 -0.24992
0 9.5 -0.24929
0 9.6 -0.24617
0 9.7 -0.24059
0 9.8 -0.23261
0 9.9 -0.2223
0 10 -0.20977
0.1 -10 -0.18481
0.1 -9.9 -0.19734
0.1 -9.8 -0.20765
0.1 -9.7 -0.21563
0.1 -9.6 -0.22121
0.1 -9.5 -0.22433
0.1 -9.4 -0.22496
0.1 -9.3 -0.2231
0.1 -9.2 -0.21875
0.1 -9.1 -0.21197
0.1 -9 -0.20282
0.1 -8.9 -0.1914
0.1 -8.8 -0.17781
0.1 -8.7 -0.1622
0.1 -8.6 -0.14472
0.1 -8.5 -0.12554
0.1 -8.4 -0.10486
0.1 -8.3 -0.082886
0.1 -8.2 -0.05983
0.1 -8.1 -0.035928
0.1 -8 -0.011417
0.1 -7.9 0.013458
0.1 -7.8 0.038447
0.1 -7.7 0.063302
0.1 -7.6 0.087773
0.1 -7.5 0.11162
0.1 -7.4 0.1346
0.1 -7.3 0.15648
0.1 -7.2 0.17705
0.1 -7.1 0.1961
0.1 -7 0.21343
0.1 -6.9 0.22889
0.1 -6.8 0.24231
0.1 -6.7 0.25355
0.1 -6.6 0.26252
0.1 -6.5 0.26911
0.1 -6.4 0.27325
0.1 -6.3 0.27492
0.1 -6.2 0.27409
0.1 -6.1 0.27078
0.1 -6 0.265
0.1 -5.9 0.25683
0.1 -5.8 0.24634
0.1 -5.7 0.23364
0.1 -5.6 0.21885
0.1 -5.5 0.20213
0.1 -5.4 0.18363
0.1 -5.3 0.16355
0.1 -5.2 0.14209
0.1 -5.1 0.11945
0.1 -5 0.095874
0.1 -4.9 0.071586
0.1 -4.8 0.046833
0.1 -4.7 0.021861
0.1 -4.6 -0.0030798
0.1 -4.5 -0.027741
0.1 -4.4 -0.051875
0.1 -4.3 -0.075241
0.1 -4.2 -0.097607
0.1 -4.1 -0.11875
0.1 -4 -0.13845
0.1 -3.9 -0.15652
0.1 -3.8 -0.17278
0.1 -3.7 -0.18707
0.1 -3.6 -0.19923
0.1 -3.5 -0.20916
0.1 -3.4 -0.21674
0.1 -3.3 -0.22191
0.1 -3.2 -0.22462
0.1 -3.1 -0.22483
0.1 -3 -0.22254
0.1 -2.9 -0.21778
0.1 -2.8 -0.2106
0.1 -2.7 -0.20106
0.1 -2.6 -0.18926
0.1 -2.5 -0.17533
0.1 -2.4 -0.15939
0.1 -2.3 -0.14161
0.1 -2.2 -0.12217
0.1 -2.1 -0.10125
0.1 -2 -0.079078
0.1 -1.9 -0.055864
0.1 -1.8 -0.031842
0.1 -1.7 -0.0072528
0.1 -1.6 0.017658
0.1 -1.5 0.042643
0.1 -1.4 0.06745
0.1 -1.3 0.091833
0.1 -1.2 0.11555
0.1 -1.1 0.13836
0.1 -1 0.16003
0.1 -0.9 0.18036
0.1 -0.8 0.19914
0.1 -0.7 0.21617
0.1 -0.6 0.23129
0.1 -0.5 0.24435
0.1 -0.4 0.25522
0.1 -0.3 0.26379
0.1 -0.2 0.26997
0.1 -0.1 0.27371
0.1 0 0.27496
0.1 0.1 0.27371
0.1 0.2 0.26997
0.1 0.3 0.26379
0.1 0.4 0.25522
0.1 0.5 0.24435
0.1 0.6 0.23129
0.1 0.7 0.21617
0.1 0.8 0.19914
0.1 0.9 0.18036
0.1 1 0.16003
0.1 1.1 0.13836
0.1 1.2 0.11555
0.1 1.3 0.091833
0.1 1.4 0.06745
0.1 1.5 0.042643
0.1 1.6 0.017658
0.1 1.7 -0.0072528
0.1 1.8 -0.031842
0.1 1.9 -0.055864
0.1 2 -0.079078
0.1 2.1 -0.10125
0.1 2.2 -0.12217
0.1 2.3 -0.14161
0.1 2.4 -0.15939
0.1 2.5 -0.17533
0.1 2.6 -0.18926
0.1 2.7 -0.20106
0.1 2.8 -0.2106
0.1 2.9 -0.21778
0.1 3 -0.22254
0.1 3.1 -0.22483
0.1 3.2 -0.22462
0.1 3.3 -0.22191
0.1 3.4 -0.21674
0.1 3.5 -0.20916
0.1 3.6 -0.19923
0.1 3.7 -0.18707
0.1 3.8 -0.17278
0.1 3.9 -0.15652
0.1 4 -0.13845
0.1 4.1 -0.11875
0.1 4.2 -0.097607
0.1 4.3 -0.075241
0.1 4.4 -0.051875
0.1 4.5 -0.027741
0.1 4.6 -0.0030798
0.1 4.7 0.021861
0.1 4.8 0.046833
0.1 4.9 0.071586
0.1 5 0.095874
0.1 5.1 0.11945
0.1 5.2 0.14209
0.1 5.3 0.16355
0.1 5.4 0.18363
0.1 5.5 0.20213
0.1 5.6 0.21885
0.1 5.7 0.23364
0.1 5.8 0.24634
0.1 5.9 0.25683
0.1 6 0.265
0.1 6.1 0.27078
0.1 6.2 0.27409
0.1 6.3 0.27492
0.1 6.4 0.27325
0.1 6.5 0.26911
0.1 6.6 0.26252
0.1 6.7 0.25355
0.1 6.8 0.24231
0.1 6.9 0.22889
0.1 7 0.21343
0.1 7.1 0.1961
0.1 7.2 0.17705
0.1 7.3 0.15648
0.1 7.4 0.1346
0.1 7.5 0.11162
0.1 7.6 0.087773
0.1 7.7 0.063302
0.1 7.8 0.038447
0.1 7.9 0.013458
0.1 8 -0.011417
0.1 8.1 -0.035928
0.1 8.2 -0.05983
0.1 8.3 -0.082886
0.1 8.4 -0.10486
0.1 8.5 -0.12554
0.1 8.6 -0.14472
0.1 8.7 -0.1622
0.1 8.8 -0.17781
0.1 8.9 -0.1914
0.1 9 -0.20282
0.1 9.1 -0.21197
0.1 9.2 -0.21875
0.1 9.3 -0.2231
0.1 9.4 -0.22496
0.1 9.5 -0.22433
0.1 9.6 -0.22121
0.1 9.7 -0.21563
0.1 9.8 -0.20765
0.1 9.9 -0.19734
0.1 10 -0.18481
0.2 -10 -0.1601
0.2 -9.9 -0.17263
0.2 -9.8 -0.18294
0.2 -9.7 -0.19092
0.2 -9.6 -0.1965
0.2 -9.5 -0.19963
0.2 -9.4 -0.20026
0.2 -9.3 -0.19839
0.2 -9.2 -0.19404
0.2 -9.1 -0.18726
0.2 -9 -0.17812
0.2 -8.9 -0.16669
0.2 -8.8 -0.15311
0.2 -8.7 -0.13749
0.2 -8.6 -0.12001
0.2 -8.5 -0.10084
0.2 -8.4 -0.080155
0.2 -8.3 -0.058177
0.2 -8.2 -0.035121
0.2 -8.1 -0.011219
0.2 -8 0.013292
0.2 -7.9 0.038167
0.2 -7.8 0.063156
0.2 -7.7 0.088011
0.2 -7.6 0.11248
0.2 -7.5 0.13633
0.2 -7.4 0.1593
0.2 -7.3 0.18119
0.2 -7.2 0.20176
0.2 -7.1 0.2208
0.2 -7 0.23814
0.2 -6.9 0.2536
0.2 -6.8 0.26702
0.2 -6.7 0.27826
0.2 -6.6 0.28723
0.2 -6.5 0.29381
0.2 -6.4 0.29796
0.2 -6.3 0.29963
0.2 -6.2 0.2988
0.2 -6.1 0.29548
0.2 -6 0.28971
0.2 -5.9 0.28154
0.2 -5.8 0.27105
0.2 -5.7 0.25835
0.2 -5.6 0.24356
0.2 -5.5 0.22683
0.2 -5.4 0.20834
0.2 -5.3 0.18826
0.2 -5.2 0.1668
0.2 -5.1 0.14416
0.2 -5 0.12058
0.2 -4.9 0.096295
0.2 -4.8 0.071542
0.2 -4.7 0.04657
0.2 -4.6 0.021629
0.2 -4.5 -0.0030316
0.2 -4.4 -0.027166
0.2 -4.3 -0.050532
0.2 -4.2 -0.072898
0.2 -4.1 -0.094039
0.2 -4 -0.11374
0.2 -3.9 -0.13182
0.2 -3.8 -0.14807
0.2 -3.7 -0.16236
0.2 -3.6 -0.17452
0.2 -3.5 -0.18445
0.2 -3.4 -0.19203
0.2 -3.3 -0.1972
0.2 -3.2 -0.19991
0.2 -3.1 -0.20012
0.2 -3 -0.19783
0.2 -2.9 -0.19307
0.2 -2.8 -0.18589
0.2 -2.7 -0.17635
0.2 -2.6 -0.16455
0.2 -2.5 -0.15062
0.2 -2.4 -0.13468
0.2 -2.3 -0.1169
0.2 -2.2 -0.097458
0.2 -2.1 -0.076544
0.2 -2 -0.054369
0.2 -1.9 -0.031155
0.2 -1.8 -0.0071332
0.2 -1.7 0.017456
0.2 -1.6 0.042367
0.2 -1.5 0.067352
0.2 -1.4 0.092159
0.2 -1.3 0.11654
0.2 -1.2 0.14026
0.2 -1.1 0.16307
0.2 -1 0.18474
0.2 -0.9 0.20507
0.2 -0.8 0.22384
0.2 -0.7 0.24088
0.2 -0.6 0.256
0.2 -0.5 0.26906
0.2 -0.4 0.27993
0.2 -0.3 0.2885
0.2 -0.2 0.29468
0.2 -0.1 0.29842
0.2 0 0.29967
0.2 0.1 0.29842
0.2 0.2 0.29468
0.2 0.3 0.2885
0.2 0.4 0.27993
0.2 0.5 0.26906
0.2 0.6 0.256
0.2 0.7 0.24088
0.2 0.8 0.22384
0.2 0.9 0.20507
0.2 1 0.18474
0.2 1.1 0.16307
0.2 1.2 0.14026
0.2 1.3 0.11654
0.2 1.4 0.092159
0.2 1.5 0.067352
0.2 1.6 0.042367
0.2 1.7 0.017456
0.2 1.8 -0.0071332
0.2 1.9 -0.031155
0.2 2 -0.054369
0.2 2.1 -0.076544
0.2 2.2 -0.097458
0.2 2.3 -0.1169
0.2 2.4 -0.13468
0.2 2.5 -0.15062
0.2 2.6 -0.16455
0.2 2.7 -0.17635
0.2 2.8 -0.18589
0.2 2.9 -0.19307
0.2 3 -0.19783
0.2 3.1 -0.20012
0.2 3.2 -0.19991
0.2 3.3 -0.1972
0.2 3.4 -0.19203
0.2 3.5 -0.18445
0.2 3.6 -0.17452
0.2 3.7 -0.16236
0.2 3.8 -0.14807
0.2 3.9 -0.13182
0.2 4 -0.11374
0.2 4.1 -0.094039
0.2 4.2 -0.072898
0.2 4.3 -0.050532
0.2 4.4 -0.027166
0.2 4.5 -0.0030316
0.2 4.6 0.021629
0.2 4.7 0.04657
0.2 4.8 0.071542
0.2 4.9 0.096295
0.2 5 0.12058
0.2 5.1 0.14416
0.2 5.2 0.1668
0.2 5.3 0.18826
0.2 5.4 0.20834
0.2 5.5 0.22683
0.2 5.6 0.24356
0.2 5.7 0.25835
0.2 5.8 0.27105
0.2 5.9 0.28154
0.2 6 0.28971
0.2 6.1 0.29548
0.2 6.2 0.2988
0.2 6.3 0.29963
0.2 6.4 0.29796
0.2 6.5 0.29381
0.2 6.6 0.28723
0.2 6.7 0.27826
0.2 6.8 0.26702
0.2 6.9 0.2536
0.2 7 0.23814
0.2 7.1 0.2208
0.2 7.2 0.20176
0.2 7.3 0.18119
0.2 7.4 0.1593
0.2 7.5 0.13633
0.2 7.6 0.11248
0.2 7.7 0.088011
0.2 7.8 0.063156
0.2 7.9 0.038167
0.2 8 0.013292
0.2 8.1 -0.011219
0.2 8.2 -0.035121
0.2 8.3 -0.058177
0.2 8.4 -0.080155
0.2 8.5 -0.10084
0.2 8.6 -0.12001
0.2 8.7 -0.13749
0.2 8.8 -0.15311
0.2 8.9 -0.16669
0.2 9 -0.17812
0.2 9.1 -0.18726
0.2 9.2 -0.19404
0.2 9.3 -0.19839
0.2 9.4 -0.20026
0.2 9.5 -0.19963
0.2 9.6 -0.1965
0.2 9.7 -0.19092
0.2 9.8 -0.18294
0.2 9.9 -0.17263
0.2 10 -0.1601
0.3 -10 -0.13589
0.3 -9.9 -0.14842
0.3 -9.8 -0.15873
0.3 -9.7 -0.16671
0.3 -9.6 -0.17229
0.3 -9.5 -0.17541
0.3 -9.4 -0.17604
0.3 -9.3 -0.17418
0.3 -9.2 -0.16983
0.3 -9.1 -0.16305
0.3 -9 -0.1539
0.3 -8.9 -0.14248
0.3 -8.8 -0.12889
0.3 -8.7 -0.11328
0.3 -8.6 -0.0958
0.3 -8.5 -0.076623
0.3 -8.4 -0.055942
0.3 -8.3 -0.033964
0.3 -8.2 -0.010909
0.3 -8.1 0.012994
0.3 -8 0.037505
0.3 -7.9 0.06238
0.3 -7.8 0.087369
0.3 -7.7 0.11222
0.3 -7.6 0.1367
0.3 -7.5 0.16054
0.3 -7.4 0.18352
0.3 -7.3 0.2054
0.3 -7.2 0.22597
0.3 -7.1 0.24502
0.3 -7 0.26236
0.3 -6.9 0.27781
0.3 -6.8 0.29123
0.3 -6.7 0.30248
0.3 -6.6 0.31144
0.3 -6.5 0.31803
0.3 -6.4 0.32218
0.3 -6.3 0.32384
0.3 -6.2 0.32302
0.3 -6.1 0.3197
0.3 -6 0.31392
0.3 -5.9 0.30575
0.3 -5.8 0.29526
0.3 -5.7 0.28256
0.3 -5.6 0.26777
0.3 -5.5 0.25105
0.3 -5.4 0.23255
0.3 -5.3 0.21247
0.3 -5.2 0.19101
0.3 -5.1 0.16837
0.3 -5 0.1448
0.3 -4.9 0.12051
0.3 -4.8 0.095755
0.3 -4.7 0.070783
0.3 -4.6 0.045842
0.3 -4.5 0.021181
0.3 -4.4 -0.0029532
0.3 -4.3 -0.02632
0.3 -4.2 -0.048685
0.3 -4.1 -0.069826
0.3 -4 -0.089531
0.3 -3.9 -0.1076
0.3 -3.8 -0.12386
0.3 -3.7 -0.13814
0.3 -3.6 -0.15031
0.3 -3.5 -0.16023
0.3 -3.4 -0.16782
0.3 -3.3 -0.17299
0.3 -3.2 -0.17569
0.3 -3.1 -0.1759
0.3 -3 -0.17362
0.3 -2.9 -0.16886
0.3 -2.8 -0.16168
0.3 -2.7 -0.15214
0.3 -2.6 -0.14034
0.3 -2.5 -0.12641
0.3 -2.4 -0.11047
0.3 -2.3 -0.092689
0.3 -2.2 -0.073245
0.3 -2.1 -0.052331
0.3 -2 -0.030157
0.3 -1.9 -0.0069423
0.3 -1.8 0.01708
0.3 -1.7 0.041669
0.3 -1.6 0.06658
0.3 -1.5 0.091564
0.3 -1.4 0.11637
0.3 -1.3 0.14075
0.3 -1.2 0.16447
0.3 -1.1 0.18728
0.3 -1 0.20896
0.3 -0.9 0.22928
0.3 -0.8 0.24806
0.3 -0.7 0.26509
0.3 -0.6 0.28021
0.3 -0.5 0.29328
0.3 -0.4 0.30415
0.3 -0.3 0.31271
0.3 -0.2 0.3189
0.3 -0.1 0.32263
0.3 0 0.32388
0.3 0.1 0.32263
0.3 0.2 0.3189
0.3 0.3 0.31271
0.3 0.4 0.30415
0.3 0.5 0.29328
0.3 0.6 0.28021
0.3 0.7 0.26509
0.3 0.8 0.24806
0.3 0.9 0.22928
0.3 1 0.20896
0.3 1.1 0.18728
0.3 1.2 0.16447
0.3 1.3 0.14075
0.3 1.4 0.11637
0.3 1.5 0.091564
0.3 1.6 0.06658
0.3 1.7 0.041669
0.3 1.8 0.01708
0.3 1.9 -0.0069423
0.3 2 -0.030157
0.3 2.1 -0.052331
0.3 2.2 -0.073245
0.3 2.3 -0.092689
0.3 2.4 -0.11047
0.3 2.5 -0.12641
0.3 2.6 -0.14034
0.3 2.7 -0.15214
0.3 2.8 -0.16168
0.3 2.9 -0.16886
0.3 3 -0.17362
0.3 3.1 -0.1759
0.3 3.2 -0.17569
0.3 3.3 -0.17299
0.3 3.4 -0.16782
0.3 3.5 -0.16023
0.3 3.6 -0.15031
0.3 3.7 -0.13814
0.3 3.8 -0.12386
0.3 3.9 -0.1076
0.3 4 -0.089531
0.3 4.1 -0.069826
0.3 4.2 -0.048685
0.3 4.3 -0.02632
0.3 4.4 -0.0029532
0.3 4.5 0.021181
0.3 4.6 0.045842
0.3 4.7 0.070783
0.3 4.8 0.095755
0.3 4.9 0.12051
0.3 5 0.1448
0.3 5.1 0.16837
0.3 5.2 0.19101
0.3 5.3 0.21247
0.3 5.4 0.23255
0.3 5.5 0.25105
0.3 5.6 0.26777
0.3 5.7 0.28256
0.3 5.8 0.29526
0.3 5.9 0.30575
0.3 6 0.31392
0.3 6.1 0.3197
0.3 6.2 0.32302
0.3 6.3 0.32384
0.3 6.4 0.32218
0.3 6.5 0.31803
0.3 6.6 0.31144
0.3 6.7 0.30248
0.3 6.8 0.29123
0.3 6.9 0.27781
0.3 7 0.26236
0.3 7.1 0.24502
0.3 7.2 0.22597
0.3 7.3 0.2054
0.3 7.4 0.18352
0.3 7.5 0.16054
0.3 7.6 0.1367
0.3 7.7 0.11222
0.3 7.8 0.087369
0.3 7.9 0.06238
0.3 8 0.037505
0.3 8.1 0.012994
0.3 8.2 -0.010909
0.3 8.3 -0.033964
0.3 8.4 -0.055942
0.3 8.5 -0.076623
0.3 8.6 -0.0958
0.3 8.7 -0.11328
0.3 8.8 -0.12889
0.3 8.9 -0.14248
0.3 9 -0.1539
0.3 9.1 -0.16305
0.3 9.2 -0.16983
0.3 9.3 -0.17418
0.3 9.4 -0.17604
0.3 9.5 -0.17541
0.3 9.6 -0.17229
0.3 9.7 -0.16671
0.3 9.8 -0.15873
0.3 9.9 -0.14842
0.3 10 -0.13589
0.4 -10 -0.11241
0.4 -9.9 -0.12494
0.4 -9.8 -0.13525
0.4 -9.7 -0.14324
0.4 -9.6 -0.14882
0.4 -9.5 -0.15194
0.4 -9.4 -0.15257
0.4 -9.3 -0.1507
0.4 -9.2 -0.14636
0.4 -9.1 -0.13958
0.4 -9 -0.13043
0.4 -8.9 -0.119
0.4 -8.8 -0.10542
0.4 -8.7 -0.089807
0.4 -8.6 -0.072325
0.4 -8.5 -0.053148
0.4 -8.4 -0.032468
0.4 -8.3 -0.01049
0.4 -8.2 0.012566
0.4 -8.1 0.036469
0.4 -8 0.06098
0.4 -7.9 0.085854
0.4 -7.8 0.11084
0.4 -7.7 0.1357
0.4 -7.6 0.16017
0.4 -7.5 0.18401
0.4 -7.4 0.20699
0.4 -7.3 0.22887
0.4 -7.2 0.24944
0.4 -7.1 0.26849
0.4 -7 0.28583
0.4 -6.9 0.30129
0.4 -6.8 0.3147
0.4 -6.7 0.32595
0.4 -6.6 0.33491
0.4 -6.5 0.3415
0.4 -6.4 0.34565
0.4 -6.3 0.34732
0.4 -6.2 0.34649
0.4 -6.1 0.34317
0.4 -6 0.3374
0.4 -5.9 0.32922
0.4 -5.8 0.31873
0.4 -5.7 0.30603
0.4 -5.6 0.29125
0.4 -5.5 0.27452
0.4 -5.4 0.25603
0.4 -5.3 0.23595
0.4 -5.2 0.21448
0.4 -5.1 0.19185
0.4 -5 0.16827
0.4 -4.9 0.14398
0.4 -4.8 0.11923
0.4 -4.7 0.094257
0.4 -4.6 0.069316
0.4 -4.5 0.044656
0.4 -4.4 0.020521
0.4 -4.3 -0.0028452
0.4 -4.2 -0.025211
0.4 -4.1 -0.046351
0.4 -4 -0.066056
0.4 -3.9 -0.084128
0.4 -3.8 -0.10039
0.4 -3.7 -0.11467
0.4 -3.6 -0.12684
0.4 -3.5 -0.13676
0.4 -3.4 -0.14434
0.4 -3.3 -0.14952
0.4 -3.2 -0.15222
0.4 -3.1 -0.15243
0.4 -3 -0.15014
0.4 -2.9 -0.14538
0.4 -2.8 -0.1382
0.4 -2.7 -0.12866
0.4 -2.6 -0.11687
0.4 -2.5 -0.10293
0.4 -2.4 -0.086994
0.4 -2.3 -0.069214
0.4 -2.2 -0.049771
0.4 -2.1 -0.028857
0.4 -2 -0.0066821
0.4 -1.9 0.016532
0.4 -1.8 0.040554
0.4 -1.7 0.065143
0.4 -1.6 0.090055
0.4 -1.5 0.11504
0.4 -1.4 0.13985
0.4 -1.3 0.16423
0.4 -1.2 0.18794
0.4 -1.1 0.21075
0.4 -1 0.23243
0.4 -0.9 0.25276
0.4 -0.8 0.27153
0.4 -0.7 0.28857
0.4 -0.6 0.30369
0.4 -0.5 0.31675
0.4 -0.4 0.32762
0.4 -0.3 0.33619
0.4 -0.2 0.34237
0.4 -0.1 0.34611
0.4 0 0.34735
0.4 0.1 0.34611
0.4 0.2 0.34237
0.4 0.3 0.33619
0.4 0.4 0.32762
0.4 0.5 0.31675
0.4 0.6 0.30369
0.4 0.7 0.28857
0.4 0.8 0.27153
0.4 0.9 0.25276
0.4 1 0.23243
0.4 1.1 0.21075
0.4 1.2 0.18794
0.4 1.3 0.16423
0.4 1.4 0.13985
0.4 1.5 0.11504
0.4 1.6 0.090055
0.4 1.7 0.065143
0.4 1.8 0.040554
0.4 1.9 0.016532
0.4 2 -0.0066821
0.4 2.1 -0.028857
0.4 2.2 -0.049771
0.4 2.3 -0.069214
0.4 2.4 -0.086994
0.4 2.5 -0.10293
0.4 2.6 -0.11687
0.4 2.7 -0.12866
0.4 2.8 -0.1382
0.4 2.9 -0.14538
0.4 3 -0.15014
0.4 3.1 -0.15243
0.4 3.2 -0.15222
0.4 3.3 -0.14952
0.4 3.4 -0.14434
0.4 3.5 -0.13676
0.4 3.6 -0.12684
0.4 3.7 -0.11467
0.4 3.8 -0.10039
0.4 3.9 -0.084128
0.4 4 -0.066056
0.4 4.1 -0.046351
0.4 4.2 -0.025211
0.4 4.3 -0.0028452
0.4 4.4 0.020521
0.4 4.5 0.044656
0.4 4.6 0.069316
0.4 4.7 0.094257
0.4 4.8 0.11923
0.4 4.9 0.14398
0.4 5 0.16827
0.4 5.1 0.19185
0.4 5.2 0.21448
0.4 5.3 0.23595
0.4 5.4 0.25603
0.4 5.5 0.27452
0.4 5.6 0.29125
0.4 5.7 0.30603
0.4 5.8 0.31873
0.4 5.9 0.32922
0.4 6 0.3374
0.4 6.1 0.34317
0.4 6.2 0.34649
0.4 6.3 0.34732
0.4 6.4 0.34565
0.4 6.5 0.3415
0.4 6.6 0.33491
0.4 6.7 0.32595
0.4 6.8 0.3147
0.4 6.9 0.30129
0.4 7 0.28583
0.4 7.1 0.26849
0.4 7.2 0.24944
0.4 7.3 0.22887
0.4 7.4 0.20699
0.4 7.5 0.18401
0.4 7.6 0.16017
0.4 7.7 0.1357
0.4 7.8 0.11084
0.4 7.9 0.085854
0.4 8 0.06098
0.4 8.1 0.036469
0.4 8.2 0.012566
0.4 8.3 -0.01049
0.4 8.4 -0.032468
0.4 8.5 -0.053148
0.4 8.6 -0.072325
0.4 8.7 -0.089807
0.4 8.8 -0.10542
0.4 8.9 -0.119
0.4 9 -0.13043
0.4 9.1 -0.13958
0.4 9.2 -0.14636
0.4 9.3 -0.1507
0.4 9.4 -0.15257
0.4 9.5 -0.15194
0.4 9.6 -0.14882
0.4 9.7 -0.14324
0.4 9.8 -0.13525
0.4 9.9 -0.12494
0.4 10 -0.11241
0.5 -10 -0.089911
0.5 -9.9 -0.10244
0.5 -9.8 -0.11275
0.5 -9.7 -0.12073
0.5 -9.6 -0.12632
0.5 -9.5 -0.12944
0.5 -9.4 -0.13007
0.5 -9.3 -0.1282
0.5 -9.2 -0.12385
0.5 -9.1 -0.11707
0.5 -9 -0.10793
0.5 -8.9 -0.096502
0.5 -8.8 -0.082917
0.5 -8.7 -0.067305
0.5 -8.6 -0.049824
0.5 -8.5 -0.030647
0.5 -8.4 -0.0099658
0.5 -8.3 0.012012
0.5 -8.2 0.035068
0.5 -8.1 0.05897
0.5 -8 0.083481
0.5 -7.9 0.10836
0.5 -7.8 0.13335
0.5 -7.7 0.1582
0.5 -7.6 0.18267
0.5 -7.5 0.20652
0.5 -7.4 0.22949
0.5 -7.3 0.25138
0.5 -7.2 0.27194
0.5 -7.1 0.29099
0.5 -7 0.30833
0.5 -6.9 0.32379
0.5 -6.8 0.33721
0.5 -6.7 0.34845
0.5 -6.6 0.35741
0.5 -6.5 0.364
0.5 -6.4 0.36815
0.5 -6.3 0.36982
0.5 -6.2 0.36899
0.5 -6.1 0.36567
0.5 -6 0.3599
0.5 -5.9 0.35173
0.5 -5.8 0.34124
0.5 -5.7 0.32853
0.5 -5.6 0.31375
0.5 -5.5 0.29702
0.5 -5.4 0.27853
0.5 -5.3 0.25845
0.5 -5.2 0.23699
0.5 -5.1 0.21435
0.5 -5 0.19077
0.5 -4.9 0.16648
0.5 -4.8 0.14173
0.5 -4.7 0.11676
0.5 -4.6 0.091818
0.5 -4.5 0.067157
0.5 -4.4 0.043023
0.5 -4.3 0.019657
0.5 -4.2 -0.0027088
0.5 -4.1 -0.02385
0.5 -4 -0.043555
0.5 -3.9 -0.061627
0.5 -3.8 -0.077886
0.5 -3.7 -0.092169
0.5 -3.6 -0.10433
0.5 -3.5 -0.11426
0.5 -3.4 -0.12184
0.5 -3.3 -0.12701
0.5 -3.2 -0.12972
0.5 -3.1 -0.12993
0.5 -3 -0.12764
0.5 -2.9 -0.12288
0.5 -2.8 -0.1157
0.5 -2.7 -0.10616
0.5 -2.6 -0.094366
0.5 -2.5 -0.08043
0.5 -2.4 -0.064492
0.5 -2.3 -0.046713
0.5 -2.2 -0.027269
0.5 -2.1 -0.0063551
0.5 -2 0.01582
0.5 -1.9 0.039034
0.5 -1.8 0.063056
0.5 -1.7 0.087645
0.5 -1.6 0.11256
0.5 -1.5 0.13754
0.5 -1.4 0.16235
0.5 -1.3 0.18673
0.5 -1.2 0.21045
0.5 -1.1 0.23326
0.5 -1 0.25493
0.5 -0.9 0.27526
0.5 -0.8 0.29403
0.5 -0.7 0.31107
0.5 -0.6 0.32619
0.5 -0.5 0.33925
0.5 -0.4 0.35012
0.5 -0.3 0.35869
0.5 -0.2 0.36487
0.5 -0.1 0.36861
0.5 0 0.36986
0.5 0.1 0.36861
0.5 0.2 0.36487
0.5 0.3 0.35869
0.5 0.4 0.35012
0.5 0.5 0.33925
0.5 0.6 0.32619
0.5 0.7 0.31107
0.5 0.8 0.29403
0.5 0.9 0.27526
0.5 1 0.25493
0.5 1.1 0.23326
0.5 1.2 0.21045
0.5 1.3 0.18673
0.5 1.4 0.16235
0.5 1.5 0.13754
0.5 1.6 0.11256
0.5 1.7 0.087645
0.5 1.8 0.063056
0.5 1.9 0.039034
0.5 2 0.01582
0.5 2.1 -0.0063551
0.5 2.2 -0.027269
0.5 2.3 -0.046713
0.5 2.4 -0.064492
0.5 2.5 -0.08043
0.5 2.6 -0.094366
0.5 2.7 -0.10616
0.5 2.8 -0.1157
0.5 2.9 -0.12288
0.5 3 -0.12764
0.5 3.1 -0.12993
0.5 3.2 -0.12972
0.5 3.3 -0.12701
0.5 3.4 -0.12184
0.5 3.5 -0.11426
0.5 3.6 -0.10433
0.5 3.7 -0.092169
0.5 3.8 -0.077886
0.5 3.9 -0.061627
0.5 4 -0.043555
0.5 4.1 -0.02385
0.5 4.2 -0.0027088
0.5 4.3 0.019657
0.5 4.4 0.043023
0.5 4.5 0.067157
0.5 4.6 0.091818
0.5 4.7 0.11676
0.5 4.8 0.14173
0.5 4.9 0.16648
0.5 5 0.19077
0.5 5.1 0.21435
0.5 5.2 0.23699
0.5 5.3 0.25845
0.5 5.4 0.27853
0.5 5.5 0.29702
0.5 5.6 0.31375
0.5 5.7 0.32853
0.5 5.8 0.34124
0.5 5.9 0.35173
0.5 6 0.3599
0.5 6.1 0.36567
0.5 6.2 0.36899
0.5 6.3 0.36982
0.5 6.4 0.36815
0.5 6.5 0.364
0.5 6.6 0.35741
0.5 6.7 0.34845
0.5 6.8 0.33721
0.5 6.9 0.32379
0.5 7 0.30833
0.5 7.1 0.29099
0.5 7.2 0.27194
0.5 7.3 0.25138
0.5 7.4 0.22949
0.5 7.5 0.20652
0.5 7.6 0.18267
0.5 7.7 0.1582
0.5 7.8 0.13335
0.5 7.9 0.10836
0.5 8 0.083481
0.5 8.1 0.05897
0.5 8.2 0.035068
0.5 8.3 0.012012
0.5 8.4 -0.0099658
0.5 8.5 -0.030647
0.5 8.6 -0.049824
0.5 8.7 -0.067305
0.5 8.8 -0.082917
0.5 8.9 -0.096502
0.5 9 -0.10793
0.5 9.1 -0.11707
0.5 9.2 -0.12385
0.5 9.3 -0.1282
0.5 9.4 -0.13007
0.5 9.5 -0.12944
0.5 9.6 -0.12632
0.5 9.7 -0.12073
0.5 9.8 -0.11275
0.5 9.9 -0.10244
0.5 10 -0.089911
0.6 -10 -0.068607
0.6 -9.9 -0.081137
0.6 -9.8 -0.091446
0.6 -9.7 -0.099431
0.6 -9.6 -0.10501
0.6 -9.5 -0.10813
0.6 -9.4 -0.10876
0.6 -9.3 -0.1069
0.6 -9.2 -0.10255
0.6 -9.1 -0.09577
0.6 -9 -0.086622
0.6 -8.9 -0.075198
0.6 -8.8 -0.061613
0.6 -8.7 -0.046001
0.6 -8.6 -0.028519
0.6 -8.5 -0.0093424
0.6 -8.4 0.011338
0.6 -8.3 0.033316
0.6 -8.2 0.056372
0.6 -8.1 0.080275
0.6 -8 0.10479
0.6 -7.9 0.12966
0.6 -7.8 0.15465
0.6 -7.7 0.1795
0.6 -7.6 0.20398
0.6 -7.5 0.22782
0.6 -7.4 0.2508
0.6 -7.3 0.27268
0.6 -7.2 0.29325
0.6 -7.1 0.3123
0.6 -7 0.32964
0.6 -6.9 0.34509
0.6 -6.8 0.35851
0.6 -6.7 0.36976
0.6 -6.6 0.37872
0.6 -6.5 0.38531
0.6 -6.4 0.38946
0.6 -6.3 0.39113
0.6 -6.2 0.3903
0.6 -6.1 0.38698
0.6 -6 0.3812
0.6 -5.9 0.37303
0.6 -5.8 0.36254
0.6 -5.7 0.34984
0.6 -5.6 0.33505
0.6 -5.5 0.31833
0.6 -5.4 0.29983
0.6 -5.3 0.27975
0.6 -5.2 0.25829
0.6 -5.1 0.23566
0.6 -5 0.21208
0.6 -4.9 0.18779
0.6 -4.8 0.16304
0.6 -4.7 0.13806
0.6 -4.6 0.11312
0.6 -4.5 0.088462
0.6 -4.4 0.064327
0.6 -4.3 0.040961
0.6 -4.2 0.018595
0.6 -4.1 -0.0025454
0.6 -4 -0.02225
0.6 -3.9 -0.040322
0.6 -3.8 -0.056581
0.6 -3.7 -0.070864
0.6 -3.6 -0.083029
0.6 -3.5 -0.092954
0.6 -3.4 -0.10054
0.6 -3.3 -0.10571
0.6 -3.2 -0.10841
0.6 -3.1 -0.10862
0.6 -3 -0.10634
0.6 -2.9 -0.10158
0.6 -2.8 -0.094395
0.6 -2.7 -0.084857
0.6 -2.6 -0.073062
0.6 -2.5 -0.059125
0.6 -2.4 -0.043188
0.6 -2.3 -0.025408
0.6 -2.2 -0.0059647
0.6 -2.1 0.014949
0.6 -2 0.037124
0.6 -1.9 0.060338
0.6 -1.8 0.08436
0.6 -1.7 0.10895
0.6 -1.6 0.13386
0.6 -1.5 0.15884
0.6 -1.4 0.18365
0.6 -1.3 0.20804
0.6 -1.2 0.23175
0.6 -1.1 0.25456
0.6 -1 0.27624
0.6 -0.9 0.29656
0.6 -0.8 0.31534
0.6 -0.7 0.33237
0.6 -0.6 0.34749
0.6 -0.5 0.36056
0.6 -0.4 0.37143
0.6 -0.3 0.37999
0.6 -0.2 0.38618
0.6 -0.1 0.38991
0.6 0 0.39116
0.6 0.1 0.38991
0.6 0.2 0.38618
0.6 0.3 0.37999
0.6 0.4 0.37143
0.6 0.5 0.36056
0.6 0.6 0.34749
0.6 0.7 0.33237
0.6 0.8 0.31534
0.6 0.9 0.29656
0.6 1 0.27624
0.6 1.1 0.25456
0.6 1.2 0.23175
0.6 1.3 0.20804
0.6 1.4 0.18365
0.6 1.5 0.15884
0.6 1.6 0.13386
0.6 1.7 0.10895
0.6 1.8 0.08436
0.6 1.9 0.060338
0.6 2 0.037124
0.6 2.1 0.014949
0.6 2.2 -0.0059647
0.6 2.3 -0.025408
0.6 2.4 -0.043188
0.6 2.5 -0.059125
0.6 2.6 -0.073062
0.6 2.7 -0.084857
0.6 2.8 -0.094395
0.6 2.9 -0.10158
0.6 3 -0.10634
0.6 3.1 -0.10862
0.6 3.2 -0.10841
0.6 3.3 -0.10571
0.6 3.4 -0.10054
0.6 3.5 -0.092954
0.6 3.6 -0.083029
0.6 3.7 -0.070864
0.6 3.8 -0.056581
0.6 3.9 -0.040322
0.6 4 -0.02225
0.6 4.1 -0.0025454
0.6 4.2 0.018595
0.6 4.3 0.040961
0.6 4.4 0.064327
0.6 4.5 0.088462
0.6 4.6 0.11312
0.6 4.7 0.13806
0.6 4.8 0.16304
0.6 4.9 0.18779
0.6 5 0.21208
0.6 5.1 0.23566
0.6 5.2 0.25829
0.6 5.3 0.27975
0.6 5.4 0.29983
0.6 5.5 0.31833
0.6 5.6 0.33505
0.6 5.7 0.34984
0.6 5.8 0.36254
0.6 5.9 0.37303
0.6 6 0.3812
0.6 6.1 0.38698
0.6 6.2 0.3903
0.6 6.3 0.39113
0.6 6.4 0.38946
0.6 6.5 0.38531
0.6 6.6 0.37872
0.6 6.7 0.36976
0.6 6.8 0.35851
0.6 6.9 0.34509
0.6 7 0.32964
0.6 7.1 0.3123
0.6 7.2 0.29325
0.6 7.3 0.27268
0.6 7.4 0.2508
0.6 7.5 0.22782
0.6 7.6 0.20398
0.6 7.7 0.1795
0.6 7.8 0.15465
0.6 7.9 0.12966
0.6 8 0.10479
0.6 8.1 0.080275
0.6 8.2 0.056372
0.6 8.3 0.033316
0.6 8.4 0.011338
0.6 8.5 -0.0093424
0.6 8.6 -0.028519
0.6 8.7 -0.046001
0.6 8.8 -0.061613
0.6 8.9 -0.075198
0.6 9 -0.086622
0.6 9.1 -0.09577
0.6 9.2 -0.10255
0.6 9.3 -0.1069
0.6 9.4 -0.10876
0.6 9.5 -0.10813
0.6 9.6 -0.10501
0.6 9.7 -0.099431
0.6 9.8 -0.091446
0.6 9.9 -0.081137
0.6 10 -0.068607
0.7 -10 -0.048713
0.7 -9.9 -0.061243
0.7 -9.8 -0.071552
0.7 -9.7 -0.079537
0.7 -9.6 -0.085118
0.7 -9.5 -0.088239
0.7 -9.4 -0.088869
0.7 -9.3 -0.087002
0.7 -9.2 -0.082656
0.7 -9.1 -0.075876
0.7 -9 -0.066728
0.7 -8.9 -0.055304
0.7 -8.8 -0.041719
0.7 -8.7 -0.026107
0.7 -8.6 -0.0086256
0.7 -8.5 0.010551
0.7 -8.4 0.031232
0.7 -8.3 0.05321
0.7 -8.2 0.076266
0.7 -8.1 0.10017
0.7 -8 0.12468
0.7 -7.9 0.14955
0.7 -7.8 0.17454
0.7 -7.7 0.1994
0.7 -7.6 0.22387
0.7 -7.5 0.24771
0.7 -7.4 0.27069
0.7 -7.3 0.29257
0.7 -7.2 0.31314
0.7 -7.1 0.33219
0.7 -7 0.34953
0.7 -6.9 0.36499
0.7 -6.8 0.3784
0.7 -6.7 0.38965
0.7 -6.6 0.39861
0.7 -6.5 0.4052
0.7 -6.4 0.40935
0.7 -6.3 0.41102
0.7 -6.2 0.41019
0.7 -6.1 0.40687
0.7 -6 0.4011
0.7 -5.9 0.39292
0.7 -5.8 0.38243
0.7 -5.7 0.36973
0.7 -5.6 0.35495
0.7 -5.5 0.33822
0.7 -5.4 0.31973
0.7 -5.3 0.29965
0.7 -5.2 0.27818
0.7 -5.1 0.25555
0.7 -5 0.23197
0.7 -4.9 0.20768
0.7 -4.8 0.18293
0.7 -4.7 0.15796
0.7 -4.6 0.13302
0.7 -4.5 0.10836
0.7 -4.4 0.084221
0.7 -4.3 0.060855
0.7 -4.2 0.038489
0.7 -4.1 0.017348
0.7 -4 -0.0023565
0.7 -3.9 -0.020429
