-1.2087 0.66417 -0.92377
-1.1461 0.54072 -0.80769
-1.403 0.82675 -0.72835
-1.1903 0.49841 -0.3541
-1.3579 0.65429 -0.55183
-1.0915 0.80485 -0.33592
-0.93124 0.74415 -0.49274
-1.0186 0.23574 -0.054026
-1.2338 0.5522 -0.33977
-1.4149 0.62354 0.091637
-0.81304 0.59487 -0.079907
-0.69813 0.43913 0.81057
-1.0739 0.69423 0.35125
-1.2902 0.66998 0.24451
-0.86411 0.95183 0.46357
-1.2128 0.72448 0.85103
-1.1889 0.84002 0.70568
-0.92475 0.67723 0.49843
-1.3671 0.34712 1.0594
-1.4785 0.4157 0.96395
-1.0154 0.55629 0.91928
-1.0193 0.61816 1.4759
-1.0788 0.81487 1.341
-1.0006 0.54011 1.195
-0.88661 0.58017 1.8245
-0.90838 0.75245 1.8189
-1.2081 0.59317 1.4466
-0.93963 0.46339 1.847
-1.0636 0.59473 2.0547
-1.1958 0.57014 1.8547
-1.3298 0.83723 2.1817
-0.97138 0.74585 2.1791
-1.1662 0.80895 2.2611
-1.0883 0.61309 2.2007
-1.2518 1.1149 2.7647
-1.3993 0.72387 2.6963
-1.064 0.52349 2.6947
-1.1095 0.44485 2.8416
-0.86386 0.72184 3.1793
-0.94124 0.72343 -1.1421
-0.89224 0.53934 -1.1318
-1.2432 0.71113 -0.81898
-1.2797 0.48557 -0.62099
-1.3445 0.93553 -0.77218
-1.0004 1.1812 -0.84734
-0.5542 0.94679 -0.83116
-0.95568 0.73969 -0.61787
-1.2479 1.0674 0.001592
-0.93444 0.8593 -0.0046213
-1.3171 0.37048 -0.32532
-1.3748 0.77446 -0.034068
-0.95765 0.81795 0.16312
-1.2489 0.91212 0.073807
-1.0358 0.77063 0.36697
-0.82345 1.0312 0.263
-1.0193 0.54392 0.28603
-0.91632 1.2816 0.41566
-1.4101 1.066 0.82183
-0.96854 0.75457 0.71851
-0.6809 0.85872 0.82787
-0.99199 0.63267 0.99538
-1.3975 0.62136 0.9126
-1.1369 0.81746 1.0977
-1.1947 0.99458 1.4303
-1.0228 0.98293 1.5961
-1.0171 1.2177 1.4967
-1.0184 0.73917 1.6474
-1.1682 0.75919 1.5518
-1.2141 0.27012 1.7089
-1.2122 0.74254 1.8235
-0.93115 0.83108 2.1046
-1.4582 0.80997 2.0544
-1.1377 0.6765 2.4257
-1.0447 0.5519 2.1037
-1.2245 0.72258 2.4615
-1.0044 1.2312 2.3768
-1.1113 0.62169 2.6078
-1.2801 0.80314 2.7262
-1.0659 0.57718 2.3847
-1.1496 1.0294 2.8621
-1.1772 1.0558 -1.2323
-1.2359 0.93385 -0.61414
-1.0854 0.89337 -0.6936
-1.4569 1.1906 -0.82957
-1.175 1.0151 -0.8103
-1.2032 0.90194 -0.63967
-1.275 0.92924 -0.45062
-0.97026 1.2023 -0.19849
-1.2404 0.99899 -0.31495
-0.99209 0.95499 -0.033927
-0.90733 1.0134 -0.15528
-1.1279 0.88342 0.22757
-1.0433 0.71036 0.015911
-0.97283 0.97422 -0.013426
-1.1131 0.58668 0.52479
-0.99204 0.76744 0.58434
-1.3433 1.1087 0.40123
-0.88112 0.76736 0.48778
-1.2901 0.95523 0.97165
-1.4535 0.8607 0.74336
-0.82774 0.95666 0.94068
-1.1096 0.98512 1.2283
-1.0099 0.80507 1.109
-1.1681 0.48887 1.0166
-1.2961 1.1015 1.2494
-1.6958 0.79397 1.6281
-0.97541 0.95809 1.3656
-1.1532 1.0914 1.8249
-1.1358 0.69183 1.6718
-1.0184 1.1473 1.614
-1.3738 1.047 1.7288
-1.2394 0.92646 2.1797
-0.87393 0.83275 2.1673
-0.98094 1.1373 2.2554
-1.3469 0.98944 2.0139
-1.5265 1.0063 2.6352
-1.2086 1.4271 2.4771
-1.0557 1.0106 2.6837
-0.91385 1.1318 2.9641
-1.0791 0.89275 2.576
-1.3159 1.2536 2.9861
-1.0378 0.9841 -1.3563
-1.3257 0.80885 -1.3719
-1.2845 0.99938 -0.64614
-1.2247 0.66842 -0.78246
-1.3368 1.2475 -0.61341
-1.1501 0.77201 -0.79313
-1.2726 1.0575 -0.42843
-1.153 1.1807 -0.55094
-1.1874 1.0966 -0.20315
-1.1772 1.0754 -0.36558
-1.1954 0.83427 -0.024362
-0.85719 0.9919 0.5328
-0.97852 1.1838 0.26469
-1.0859 0.85392 0.11128
-1.3831 0.76197 0.25685
-1.414 0.86656 0.10715
-1.48 1.169 0.52392
-0.59001 0.94915 0.80862
-0.908 1.046 0.92792
-1.0473 0.66282 0.67885
-1.2871 0.85216 0.97421
-1.3206 0.9664 -1.0377
-0.99072 0.85609 -0.98645
-0.79257 1.3313 -1.0348
-1.4272 1.3051 -0.93839
-1.1849 0.79741 -0.69653
-1.1138 1.1513 -0.67892
-1.4853 0.91458 -0.58069
-0.93354 1.0703 -0.29376
-1.1781 1.1115 -0.15824
-0.72498 1.4356 -0.2082
-1.1735 1.1748 -0.036889
-1.0177 0.97478 0.24571
-1.3199 1.2645 -0.011155
-1.2191 1.2732 0.2748
-1.325 1.1296 0.40016
-1.0209 1.5393 0.35502
-0.84384 1.0701 0.45681
-1.213 1.0132 0.59881
-1.0124 1.209 0.55548
-1.1956 0.849 1.0894
-1.0775 1.0225 0.90363
-0.86441 1.0974 -1.2462
-1.0739 1.4687 -1.0603
-1.2993 1.3403 -0.61347
-1.2643 1.3209 -1.145
-1.1305 1.3818 -0.59577
-1.1347 1.3778 -0.43154
-1.266 1.209 -0.35223
-1.0622 0.92689 -0.66472
-0.85072 0.87528 0.05162
-1.1463 1.21 -0.25676
-1.1372 1.5266 -0.040923
-1.5261 1.3645 -0.11796
-1.2482 1.4067 0.093148
-1.3687 1.552 -0.064525
-1.1726 1.1081 0.23149
-0.99502 1.0792 0.24613
-0.80072 1.4172 0.4494
-0.74712 1.063 0.66886
-1.1201 1.6311 0.71433
-1.1597 1.3761 0.98795
-0.93816 1.0789 0.92353
-1.0019 1.2299 -1.6284
-0.94834 1.4043 -1.0933
-0.94581 1.4415 -0.67967
-1.3857 1.5302 -0.59294
-0.99214 1.3688 -0.31091
-1.1152 1.105 -0.74185
-1.2454 1.3208 -0.23646
-1.2325 1.0034 -0.36415
-0.84781 1.4148 -0.15969
-1.2551 1.414 -0.13569
-1.3382 1.3312 -0.01323
-1.0556 1.1223 0.046813
-0.70578 1.5506 0.016957
-1.0924 1.495 -0.26045
-1.0373 1.164 0.061313
-1.2801 1.0428 0.10155
-0.77132 1.4982 0.40935
-1.073 1.4211 0.12279
-0.99414 1.3096 0.77062
-1.2828 1.3524 0.99179
-0.93105 1.4384 0.61217
-1.0216 1.3187 -1.1208
-1.3225 1.7052 -1.0967
-1.0896 1.4701 -0.98977
-1.1851 1.2534 -0.6414
-1.0761 1.3065 -0.74126
-1.1462 1.6956 -0.70888
-1.1344 1.2761 -0.71183
-1.2985 1.1961 -0.37694
-1.1603 1.6275 -0.24031
-0.94809 1.4648 -0.17667
-0.7576 1.8318 -0.028589
-1.3234 1.3505 0.14524
-0.63437 1.5269 0.30283
-0.80017 1.3989 0.087864
-1.0646 1.4868 0.31973
-1.156 1.093 0.49161
-1.2334 1.4512 0.51298
-0.93519 1.5512 0.66944
-1.2326 1.4015 0.50348
-1.1873 1.3326 0.92418
-0.92529 1.4077 0.80834
-1.0125 1.0957 -1.1323
-0.92273 1.7445 -0.61797
-0.99908 1.5693 -0.9134
-1.1754 1.6099 -0.73807
-1.1974 1.6301 -1.179
-0.94228 1.5585 -0.4245
-1.2281 1.7789 -0.18498
-0.86627 1.2847 -0.62247
-0.94339 1.4881 -0.34091
-1.0413 1.7138 -0.34188
-1.0967 1.4998 -0.48812
-1.0262 1.6278 -0.26191
-0.41055 1.1872 0.09404
-1.1193 1.5705 0.20672
-1.4005 1.7136 0.43721
-0.72441 1.0664 0.33594
-0.97861 1.4567 0.43775
-1.2236 1.2586 0.9054
-0.58765 1.302 0.56057
-0.99008 1.6181 0.6452
-1.0401 1.715 1.0011
-1.2489 1.5618 -0.98856
-1.3048 1.5015 -1.004
-1.4418 1.9536 -0.89385
-1.1797 1.5859 -0.93008
-1.3025 1.6767 -0.45896
-0.97122 1.5349 -0.55695
-1.1592 1.7014 -0.35079
-0.75286 1.3646 -0.17893
-0.80319 1.6068 -0.15912
-1.0654 1.4301 -0.60107
-1.1524 1.5653 0.11266
-0.87299 1.7369 -0.10227
-1.3207 1.9842 0.12171
-0.96617 1.5146 0.2358
-1.2277 1.7065 -0.03078
-1.1753 1.5136 0.69843
-1.2282 1.62 0.56287
-0.98527 2.1445 0.73877
-1.2489 1.6379 0.67545
-1.3045 1.4864 0.90425
-0.98968 1.7978 0.89615
-1.1798 1.8827 -1.1502
-1.027 1.4063 -0.79018
-1.1659 1.578 -0.91015
-1.0449 1.6154 -1.0102
-1.5968 1.6532 -0.58672
-1.0066 1.7231 -0.74773
-0.73639 1.5935 -0.6171
-0.89497 1.787 -0.50458
-0.91998 1.7943 -0.080076
-1.1441 1.5385 -0.16986
-1.0621 1.7758 -0.31356
-1.0498 1.4841 -0.060761
-1.0786 1.8633 0.21827
-1.2591 1.661 0.16784
-1.166 1.8428 0.20792
-1.1314 1.5091 -0.014652
-1.191 1.8549 0.26982
-0.9344 1.6488 0.60003
-0.60303 1.6885 0.35038
-1.3551 1.6497 0.70944
-1.0724 1.8333 0.80261
-1.3783 2.1537 -1.2309
-0.84371 1.9771 -1.1807
-0.82279 1.8084 -0.73314
-1.4212 1.657 -1.127
-0.71884 1.819 -0.55605
-1.3086 1.6083 -0.65531
-1.0532 1.7856 -0.55025
-0.88336 1.9861 -0.27448
-1.0687 1.7856 -0.2016
-0.65029 2.0349 0.41072
-0.56131 1.7056 -0.36979
-1.0704 1.8878 0.15622
-1.4688 1.8669 0.31595
-1.1685 1.5299 0.33584
-1.2625 1.701 0.34285
-1.2463 1.9983 0.52398
-1.317 1.581 -0.039139
-1.0821 1.7728 0.75671
-0.68711 1.6129 0.7757
-1.2368 1.6119 0.98531
-1.152 1.6232 0.83763
-0.8702 2.0629 -1.0849
-0.86118 1.9039 -1.013
-1.0028 1.9755 -1.1842
-0.89756 1.7945 -0.48102
-0.9278 1.8784 -1.0966
-1.1717 2.0656 -0.58893
-1.0138 1.6519 -0.64325
-1.1556 1.7549 -0.25304
-1.2726 2.1014 -0.2829
-0.97376 2.2326 -0.62035
-1.0842 1.7345 0.17078
-1.1338 1.9882 -0.14422
-1.0406 1.6598 -0.17852
-0.90502 2.0307 0.052136
-1.0209 1.9286 0.42028
-1.0595 1.7052 0.33391
-1.0429 2.0017 -0.0399
-1.0874 2.1489 0.88431
-1.2482 1.8719 0.63698
-0.94415 1.7276 0.99563
-0.82299 1.6849 1.1138
-1.2014 1.7608 -1.0075
-0.72194 2.0802 -0.97859
-1.1317 2.0687 -0.61901
-1.1448 1.85 -1.0769
-1.2722 2.1495 -0.82546
-1.2517 1.7951 -0.84791
-1.283 2.2923 -0.5892
-1.0285 1.5882 -0.68657
-0.78635 1.9493 -0.039863
-0.99465 2.1493 -0.16412
-0.93102 2.005 0.0071145
-0.83605 2.0122 0.11974
-1.5842 1.9036 0.43093
-1.13 2.3854 0.074379
-1.0286 1.913 0.032119
-0.95769 2.1386 0.18517
-1.3515 2.2385 0.60954
-1.2933 1.9365 0.6363
-0.94339 2.2847 0.75709
-1.1201 2.0891 0.84615
-0.98966 1.7129 0.84464
-1.2845 2.0108 -1.4324
-1.4156 2.0743 -0.95867
-0.94913 2.2269 -0.58494
-0.86498 2.2414 -1.0281
-0.77953 2.2384 -0.50054
-1.3958 1.8208 -0.32913
-1.3577 1.8055 -0.66113
-1.3844 2.3647 -0.40256
-1.1055 2.263 -0.24631
-1.2172 2.1829 0.016749
-0.84144 2.4037 0.11594
-1.3807 2.4623 0.027657
-1.4367 1.9522 0.12912
-1.0574 2.1108 0.096882
-0.86505 2.1866 0.3396
-1.2537 2.1261 0.058279
-1.3439 2.1421 0.60508
-1.1265 2.1404 1.0513
-1.4161 2.3142 0.92191
-1.094 1.5673 0.51223
-0.93605 2.1015 1.1557
-1.055 2.1539 -1.4215
-1.4692 2.1113 -0.7504
-1.2019 2.2307 -0.88654
-1.1562 2.3067 -1.0879
-0.74418 2.1471 -0.91134
-0.91921 2.2062 -0.55841
-1.1085 1.8813 -0.3102
-0.84238 1.9856 -0.54787
-1.3008 2.1299 -0.51674
-1.1652 2.1694 -0.32721
-0.82228 1.9948 0.046433
-0.80479 1.9727 0.17681
-0.95513 2.322 0.11786
-1.0018 2.2289 0.48517
-1.2115 2.4708 0.27932
-0.95231 2.3089 0.52452
-1.2587 1.9756 0.31832
-0.98549 1.7706 0.65739
-1.0425 2.2297 0.74826
-0.8755 2.1584 0.71366
-1.1803 2.3106 0.8326
-0.97349 2.4806 -0.96859
-0.9429 2.2636 -0.82102
-1.2723 2.3316 -1.1253
-1.0669 2.1621 -0.90238
-0.78631 2.5366 -0.42931
-1.0755 2.3127 -0.47941
-1.1575 2.1989 -0.10235
-1.0084 2.2135 -0.46597
-1.151 2.6567 -0.33176
-1.0111 2.4015 -0.23715
-1.1236 2.3845 -0.12834
-1.1009 2.3682 0.22708
-1.0076 2.3911 0.30438
-0.83206 2.3946 0.99923
-1.0094 2.3039 0.56471
-0.77635 2.636 -0.0099612
-1.4924 2.256 0.37328
-1.1849 2.1384 0.65528
-1.0514 2.2222 0.56475
-1.26 2.533 0.73888
-1.3459 2.4548 0.88501
-0.97721 2.6309 -1.1841
-0.97805 2.3609 -1.3502
-1.041 2.432 -0.89273
-1.0204 2.0493 -0.9889
-1.2669 2.5868 -0.6388
-1.1943 2.3817 -1.0862
-1.1181 2.4135 -0.46938
-1.2313 2.6 -0.4313
-1.0327 2.3494 -0.22648
-0.63675 2.4865 -0.30116
-1.1913 2.2628 -0.31014
-0.97128 2.299 -0.029202
-1.2988 2.5081 0.14687
-0.8365 2.3614 0.028653
-1.2861 2.0977 0.089379
-1.0567 2.2979 0.3166
-1.2178 2.9693 0.1709
-0.99766 2.4986 0.24639
-1.0952 2.4445 0.33535
-1.1059 2.323 0.86504
-0.52304 2.0483 0.93629
-1.2201 2.529 -1.0859
-1.1065 1.903 -0.36854
-0.57486 2.3228 -0.80962
-1.3207 2.2192 -0.67355
-0.98968 2.4611 -0.73444
-1.307 2.7117 -0.91343
-0.89666 2.6031 -0.24238
-1.0336 2.4162 -0.17049
-0.97037 2.1859 -0.20935
-1.1517 2.3988 -0.59413
-1.0496 2.2717 0.036378
-0.8106 2.5863 0.068159
-1.5405 2.3886 0.51802
-1.4155 2.7785 0.21497
-1.0165 2.4798 0.16792
-1.2249 2.2068 0.21989
-1.1551 2.5181 0.44344
-1.3889 2.6423 0.51735
-1.2736 2.406 0.91251
-1.1761 2.6229 1.2433
-1.2387 2.5687 0.6638
-1.2661 2.6775 -1.1344
-1.1795 2.539 -1.0388
-1.281 2.5778 -1.2454
-0.83604 2.5765 -0.76321
-1.2899 2.5776 -0.79563
-0.74333 2.3191 -0.71641
-1.1703 2.5991 -0.26721
-1.3801 2.3708 -0.26894
-1.2179 2.6275 -0.439
-0.91538 2.3755 -0.028413
-0.89173 2.868 -0.16935
-1.0662 2.7625 -0.11797
-1.0414 2.4976 0.09957
-0.97412 3.0047 0.0049222
-1.3815 2.8245 0.22372
-1.2107 2.7688 0.30198
-1.4538 2.199 0.44752
-1.1848 2.3561 0.57909
-0.9125 2.4659 1.087
-0.95765 2.5388 0.95289
-0.65182 2.3472 0.80701
-1.0649 2.8302 -0.9141
-1.5174 2.6008 -0.83699
-0.76836 2.6704 -0.71164
-0.84765 2.5958 -0.78772
-1.2108 2.6854 -0.95894
-1.054 2.9699 -0.47652
-0.94558 2.3461 -0.42639
-1.0225 2.5154 -0.59157
-0.96176 2.6109 0.067244
-1.1193 2.8107 -0.26485
-1.1049 2.5034 0.065197
-1.0802 2.6004 -0.19527
-1.2512 2.8396 0.37668
-0.82025 2.4635 0.15009
-1.0961 2.9066 0.19924
-0.96368 2.7693 0.56831
-1.2639 2.8136 0.45701
-1.3068 2.6997 0.93426
-1.1151 2.5084 1.06
-1.1466 2.3911 0.82625
-0.86468 2.7325 1.3856
-0.97934 2.942 -1.2138
-0.99211 2.9437 -1.1604
-1.3788 2.7859 -1.1459
-1.2858 3.1236 -1.0391
-1.058 2.8387 -0.61526
-1.1651 2.7241 -0.67767
-0.84613 2.8231 -0.34922
-0.83619 2.6827 -0.33783
-1.2105 2.9365 -0.42057
-0.92694 3.1058 -0.28406
-0.82561 3.0052 -0.26417
-1.0349 2.851 0.043498
-0.78122 2.5376 0.056104
-0.89047 2.6786 0.36374
-1.0557 2.8811 -0.28717
-0.92662 2.7877 0.75889
-1.0595 3.0719 0.28371
-1.1782 2.9313 0.76395
-1.0276 2.5234 0.34092
-1.0903 2.9259 0.93122
-1.1684 2.9328 0.66749
-0.75247 3.2436 -0.64152
-1.0543 2.9192 -0.99029
-0.56563 2.9538 -0.87795
-1.1551 2.5958 -0.95215
-0.98748 2.813 -0.77179
-0.78916 2.6118 -0.5909
-0.56586 2.8738 -0.49274
-1.0383 2.7508 -0.43115
-1.2513 2.6518 -0.55708
-0.94092 2.9018 -0.4253
-1.3544 2.7389 -0.01323
-1.1507 3.1495 0.085987
-1.0444 3.3364 -0.061606
-0.80728 2.9324 0.53946
-0.81749 2.9576 0.30735
-1.1027 2.5212 0.68766
-0.91744 3.1942 0.36688
-1.1599 2.7811 0.91468
-0.96862 2.9788 0.7528
-0.72437 2.8634 0.93003
-1.0668 2.9695 0.65417
-1.0559 -1.1142 -1.0809
-1.0948 -1.0719 -0.63116
-0.85784 -1.3046 -0.8927
-0.73694 -1.0715 -0.78144
-0.5834 -1.3872 -0.51407
-0.98685 -1.1185 -0.46012
-0.96562 -1.0618 -0.5144
-1.1206 -1.1516 -0.33909
-0.68344 -1.0339 -0.15332
-1.0121 -0.92502 -0.19617
-1.0895 -1.4078 -0.29612
-0.57199 -1.3808 0.22451
-0.83965 -1.2181 0.14696
-0.85787 -1.014 0.21611
-1.1932 -1.03 0.5241
-0.91286 -1.1666 0.054813
-0.89608 -0.9844 0.73814
-1.2101 -0.69253 0.63588
-1.0413 -1.3075 0.80101
-1.0762 -1.2622 0.98854
-0.89457 -1.4538 0.59224
-1.1935 -1.0714 1.3779
-0.78529 -0.94259 1.0764
-0.64977 -1.1697 0.76016
-1.0565 -0.88509 0.98294
-0.99907 -1.1425 1.6505
-0.89871 -1.0499 1.5377
-0.76304 -0.89992 1.5921
-0.89571 -0.98288 1.7633
-0.92005 -1.0359 1.6125
-1.0914 -0.81957 1.9737
-1.0425 -1.2754 1.9033
-0.87792 -1.1879 2.1536
-0.66964 -1.0397 2.5143
-0.88668 -1.1669 2.4256
-1.2322 -1.2072 2.6761
-0.91304 -0.95708 2.7321
-1.0153 -1.1962 2.6222
-1.0449 -1.0204 2.6694
-1.0401 -1.1331 2.9411
-1.1687 -1.1822 2.6752
-1.0599 -0.90832 -1.1227
-1.1501 -0.94068 3.0081
-1.0685 -1.2818 -0.98895
-0.97454 -0.96341 2.7841
-0.96342 -1.0074 -1.053
-1.0394 -0.77558 2.9041
-1.0271 -0.8371 -1.3226
-0.99081 -0.70013 2.7241
-0.90812 -0.35324 -1.1818
-0.74778 -0.26596 3.1107
-0.87661 -0.34186 -0.95618
-1.0532 -0.80861 3.1605
-0.88091 -0.11164 -0.92589
-1.0452 -0.188 2.9681
-1.3442 -0.24802 -1.0912
-1.4545 0.17596 2.9427
-1.3311 -0.28715 -0.84281
-1.0436 0.15194 2.9549
-1.118 -0.31287 -0.89794
-1.1376 -0.17474 2.896
-0.98946 -0.22573 -1.5046
-1.1257 0.11219 2.8411
-1.1202 0.1735 -1.0715
-0.87865 -0.0242 2.7731
-0.84502 -0.071383 -1.1065
-0.52285 -0.32274 2.6097
-0.93848 0.11691 -1.2285
-0.98602 0.02325 2.7467
-1.1092 0.53137 -1.1418
-1.0354 0.61245 2.9922
-1.0072 0.1127 -0.98706
-1.3393 0.16232 3.1065
-1.0475 0.50935 -0.90096
-0.8514 0.78712 2.8178
-1.1085 0.94669 -0.79848
-0.90112 0.989 2.9208
-0.80429 0.72543 -1.2899
-0.7876 0.67455 2.719
-0.84609 0.7013 -1.2836
-1.4375 1.0099 0.75209
-1.1073 1.0516 1.355
-0.82181 0.60463 1.1514
-0.92051 0.87539 1.4998
-0.99643 0.79915 1.3026
-0.91229 1.0199 1.7809
-0.77729 1.1254 1.6703
-0.96743 1.1362 1.5187
-1.1451 0.99756 1.958
-1.0325 0.82108 2.0202
-1.0378 0.8096 1.6989
-0.82273 0.67392 1.8308
-0.91708 1.1294 2.2296
-0.89075 0.72767 2.1659
-0.96858 0.52338 2.3013
-1.0679 0.74156 2.6514
-0.98547 1.1852 2.6608
-0.95517 0.95186 2.9076
-1.2697 0.8312 2.8602
-0.96254 0.94241 3.1867
-0.81673 1.0783 -1.166
-1.0188 1.0879 0.93014
-0.69115 1.0675 -1.1098
-0.88822 1.5475 0.92848
-1.0792 1.4087 -1.31
-1.0274 0.72024 1.0381
-1.051 1.1173 -1.2218
-0.95042 1.2963 0.70561
-0.8504 1.4995 -0.59824
-1.0542 1.3472 0.70076
-0.90809 1.4937 -1.5446
-0.65553 1.4393 0.84582
-0.81597 1.3463 -1.2684
-0.83665 2.0174 1.2548
-1.1561 1.6644 -0.9984
-1.1014 2.1554 0.95637
-0.95014 1.6293 -1.1762
-1.017 1.7525 0.89127
-1.3139 1.6477 -1.4497
-1.2923 1.736 0.77456
-0.79752 2.1783 -0.88299
-1.145 2.1498 0.66887
-0.59262 1.9321 -1.2488
-1.4301 2.132 1.0022
-0.90998 2.1169 -1.0355
-0.99725 2.3638 1.0552
-1.1447 2.1528 -0.91617
-0.91863 2.6056 0.83847
-1.152 2.1007 -0.63521
-0.82993 2.4592 0.87597
-0.98435 2.208 -0.92482
-1.3166 2.3613 0.87634
-1.4696 2.3932 -1.0469
-1.0527 2.9043 0.61958
-0.77423 2.671 -1.0249
-0.96209 2.7661 0.84501
-0.98681 2.5218 -1.385
-0.86343 2.6157 0.95691
-1.2687 2.9703 -1.5484
-0.71979 2.8825 -0.92249
-1.1715 3.0313 -0.69934
-0.99002 3.128 -0.91775
-1.0682 2.7236 -0.61392
-0.96825 2.7136 -0.5355
-1.3761 2.9915 -0.62729
-0.7006 2.8791 -0.38057
-0.89108 2.9051 -0.5282
-0.60594 2.7302 -0.063545
-0.72148 2.7179 0.0928
-0.99514 2.9896 -0.0030602
-1.1803 3.2065 -0.00041164
-1.336 2.8351 0.58969
-0.99407 3.1184 -0.033901
-0.95469 3.1694 0.68249
-0.7937 3.1114 0.67573
-1.1826 3.1979 0.82209
-0.84259 2.9725 0.95765
-0.98346 2.5883 0.31352
-1.1481 2.7422 0.99424
-0.74661 -1.1275 -1.0898
-0.84564 -1.3801 -0.98992
-0.94316 -1.1995 -1.0385
-0.53177 -0.84913 -1.1133
-0.77873 -1.2494 -0.88559
-0.91885 -1.0578 -0.52484
-0.84334 -1.0426 -0.48575
-0.88042 -0.73801 -0.28263
-0.86357 -1.1464 -0.14513
-0.80904 -0.97169 -0.41375
-1.0149 -1.3372 -0.10029
-1.0526 -1.2682 0.10094
-0.82714 -1.0338 -0.058248
-0.53025 -0.99526 0.48717
-0.95713 -1.1893 0.4737
-1.0946 -1.0439 0.32889
-0.94383 -1.2284 0.52057
-0.99164 -0.98554 0.72353
-0.96113 -1.2342 0.57517
-0.80477 -1.0484 0.43532
-0.92269 -1.0287 0.98627
-1.0131 -0.81832 1.0164
-0.9838 -1.3134 0.86688
-1.1549 -1.0557 1.4684
-1.0648 -1.4336 1.4047
-1.1726 -1.0727 1.3927
-0.99786 -0.94463 1.6136
-1.1087 -1.3052 1.6219
-1.0351 -1.1373 1.5837
-0.95612 -0.8581 1.4689
-1.1312 -0.77491 1.8192
-0.90115 -1.097 2.0702
-0.83109 -0.80801 1.9108
-1.085 -1.1283 2.0045
-0.68044 -1.2676 2.5661
-1.2063 -1.1176 2.5354
-0.97368 -1.4367 2.6433
-1.1865 -1.2583 2.1842
-0.96449 -1.2184 2.5953
-1.1552 -0.82893 3.0389
-1.0093 -1.054 2.9687
-1.0416 -0.59928 -1.4956
-1.1282 -0.91069 3.0755
-1.2995 -0.8285 -1.08
-0.78733 -0.94095 3.1076
-0.50785 -0.971 -1.4375
-0.46438 -0.76437 3.079
-0.99323 -0.77063 -1.1805
-0.90633 -1.0007 2.9889
-0.98808 -0.49709 -1.4861
-0.88258 -0.62951 3.0059
-1.0763 -0.44635 -1.5622
-1.2712 -0.59872 2.9647
-0.90447 -0.26389 -1.0963
-1.136 -0.51394 2.915
-1.2679 -0.22809 -0.92969
-0.43499 -0.16724 2.8243
-0.94282 -0.22179 -1.1772
-0.81872 -0.37662 2.9406
-0.66514 -0.0509 -0.82587
-1.2255 0.11241 2.8115
-0.81691 -0.42155 -1.2361
-0.79966 0.024827 2.6213
-0.8812 0.13011 -0.78625
-0.86664 0.17078 3.0422
-1.0002 0.12888 -1.0158
-0.75656 0.26849 3.183
-1.0629 0.19472 -1.0532
-1.0525 0.35234 2.7692
-0.75612 0.62623 -1.1698
-0.56892 0.38495 3.0326
-0.97263 0.29245 -0.7149
-0.99574 0.48249 3.0404
-0.8179 0.68717 -1.1482
-0.68853 0.55 2.9014
-0.70886 1.0262 -1.0149
-0.84476 0.61671 2.8461
-1.0209 0.71984 -1.3986
-0.77473 1.12 2.7579
-0.91281 0.96079 -1.2339
-0.62921 1.0069 0.79275
-1.1716 1.1624 1.0001
-0.86987 0.77503 1.2137
-0.6462 0.86646 1.1136
-0.99376 1.072 1.3445
-1.0191 0.74748 1.6727
-1.0792 0.94914 1.7002
-0.95166 0.67605 1.7896
-0.93643 1.0018 1.7723
-0.87074 1.338 2.0001
-1.0694 0.87097 1.8648
-0.8813 0.82428 2.0781
-1.015 1.2261 1.7588
-0.96918 0.71995 2.3645
-1.0606 0.82928 2.012
-0.95239 0.89624 2.3559
-0.20214 1.0208 2.8577
-0.23376 0.69053 3.0281
-0.67401 0.71415 3.107
-0.74406 0.96191 2.6902
-1.1463 0.96579 -1.2461
-1.0112 0.67622 0.87575
-1.018 0.76695 -1.0892
-0.79313 0.76529 0.88364
-0.80331 1.2065 -0.94615
-0.87625 1.2909 0.90484
-0.96365 1.4325 -0.89548
-1.0777 1.0958 0.9757
-0.89634 1.011 -1.0446
-0.67553 1.518 0.81077
-0.81415 1.4862 -1.0086
-0.86212 1.4992 1.0769
-0.76933 1.5235 -0.83242
-0.78359 1.5419 1.0139
-1.2122 2.073 -1.4008
-0.89372 1.6727 1.263
-0.98033 1.9021 -1.2056
-1.2935 1.3798 1.0399
-1.1561 1.613 -1.6506
-0.95967 1.7504 1.3824
-0.73662 2.0312 -1.3245
-0.94203 2.0731 0.76557
-0.8463 2.5914 -1.1631
-1.0723 1.7604 0.96223
-1.3175 1.8661 -1.3036
-0.87908 2.1479 1.0955
-1.0826 2.1333 -1.492
-0.66901 2.1004 0.8972
-0.55947 2.5882 -1.0768
-0.96976 2.3195 0.84252
-0.66506 2.5939 -1.4517
-0.71165 2.5422 0.96622
-1.173 2.2909 -1.2835
-0.90387 2.7518 1.0304
-0.84652 2.6527 -1.1436
-0.79552 2.5737 1.0611
-0.76557 2.7728 -0.95785
-0.76604 2.8792 0.9532
-0.76526 3.1178 -1.05
-0.95825 2.9225 -1.045
-0.82352 2.5667 -0.7614
-1.3361 3.0651 -0.97246
-1.1249 2.7962 -0.7253
-0.66329 3.262 -0.6201
-1.0261 3.0214 -0.58065
-0.83358 3.03 -0.47755
-0.60367 2.8362 -0.40568
-1.0705 2.7384 -0.092398
-1.0842 2.7605 0.18629
-0.99333 2.6501 0.21862
-0.81148 2.7422 -0.1531
-0.93725 3.1328 0.22825
-1.0878 2.7861 0.37939
-1.2037 2.891 0.23502
-0.96948 3.2059 0.47165
-0.94044 2.8055 0.73449
-1.0016 2.8634 0.51408
-0.94839 3.0373 0.79648
-1.1107 2.9415 1.0814
-0.69041 -1.0073 -1.1166
-1.2209 -1.1711 -0.791
-0.76921 -1.1318 -0.80696
-0.66708 -0.7819 -0.92848
-0.96268 -0.70369 -0.4099
-0.80849 -1.1041 -0.56043
-0.74055 -1.2481 -0.76679
-0.91707 -1.1151 -0.55023
-0.80003 -1.2098 -0.49533
-0.71712 -1.2373 -0.64857
-0.97988 -1.4819 -0.11907
-0.63473 -1.3993 0.046242
-0.58421 -1.1031 0.19873
-0.73483 -1.2234 0.29377
-0.79443 -0.83986 0.39052
-1.0242 -1.4579 0.25302
-0.701 -1.2782 0.28721
-1.0342 -0.99946 0.66662
-0.48757 -1.006 0.57527
-0.69484 -1.1831 0.82682
-0.7458 -1.2928 0.78983
-0.87403 -1.5592 0.95635
-1.2212 -1.19 1.3101
-1.0302 -1.0059 1.0838
-0.72623 -1.1209 0.80879
-0.32755 -1.364 1.3271
-0.65321 -0.91124 1.5376
-0.73705 -0.95385 1.82
-0.90293 -1.1344 1.6395
-0.77356 -1.0814 1.8
-0.60997 -1.083 2.0046
-0.84684 -1.0626 2.1227
-0.42896 -0.94706 2.3158
-1.035 -1.1675 2.0303
-0.87065 -0.78792 2.4095
-0.78716 -1.3203 2.2896
-1.1779 -1.1601 2.523
-0.68726 -1.2533 2.8565
-0.78222 -1.227 2.6042
-0.78166 -1.4191 3.1012
-0.64261 -0.87035 2.8945
-0.59412 -0.98252 -1.2098
-0.64115 -1.0221 3.036
-0.88868 -0.87864 -1.2926
-0.80645 -1.0358 2.8141
-0.72854 -0.86942 -1.1648
-1.0421 -0.62261 2.7327
-0.99914 -0.71034 -0.97445
-0.88053 -0.59785 3.0927
-0.78225 -0.46974 -1.2256
-0.44859 -0.39714 3.0551
-0.64211 -0.60156 -1.2972
-0.88355 -0.64251 3.0109
-0.91989 -0.32348 -1.2643
-0.49867 -0.58099 2.7347
-0.26502 -0.068428 -0.89448
-0.76477 -0.50641 2.8232
-0.89063 0.015217 -1.3257
-1.0725 0.11938 2.9119
-0.6075 -0.34831 -1.2915
-0.74095 0.13284 2.5435
-0.57041 0.1037 -1.1603
-0.97435 0.025149 2.5636
-0.75052 0.056281 -1.1283
-0.92475 0.06646 2.4362
-0.54908 0.37457 -1.2471
-0.90472 0.07668 2.8339
-0.8144 0.18387 -1.1634
-0.86511 0.90446 2.9186
-0.6038 0.71257 -1.3322
-0.71394 0.61437 2.9301
-0.99294 0.6892 -1.0636
-0.92059 0.49768 2.7645
-1.001 0.26385 -0.40007
-0.69889 0.56542 3.1336
-0.73273 0.85092 -0.91721
-1.1159 0.83341 2.9053
-1.1687 1.1151 -1.4603
-0.80524 1.0406 2.7354
-0.6616 0.99101 -1.2144
-0.7645 0.79518 1.0518
-1.098 0.84757 0.9453
-1.0996 1.0021 1.2456
-0.62851 0.8109 1.4598
-0.82569 0.81601 1.3401
-0.8726 1.1859 1.2547
-0.54104 0.87657 1.6319
-0.95249 0.59468 1.7757
-0.771 0.47559 1.526
-0.71601 0.95038 2.1367
-0.6377 0.80933 1.9947
-0.96376 0.82523 1.9669
-0.72779 0.87543 2.1132
-0.26211 0.90988 2.4817
-1.092 0.70415 2.4027
-0.71286 0.89769 2.4778
-0.84212 0.47502 2.4728
-0.95845 0.72075 2.7616
-0.9594 0.82586 2.6014
-0.70041 0.95665 2.9423
-0.34641 1.0567 -0.43351
-0.95197 1.2493 0.8885
-0.69202 1.4303 -1.2186
-0.90625 1.1893 1.0593
-0.41244 1.0416 -1.2389
-0.6913 1.3065 0.7816
-0.82423 1.5466 -1.1454
-0.67665 1.5224 0.87739
-0.79846 1.4226 -1.0546
-0.58175 1.1191 0.99974
-0.83352 1.2516 -1.0775
-1.0158 1.4313 0.72623
-0.74938 1.704 -1.1625
-0.49336 1.4878 0.84698
-1.0304 1.3971 -1.156
-0.84457 1.9599 1.1718
-0.60168 1.7145 -0.63348
-1.1713 1.9974 0.78427
-0.67557 1.9878 -1.0832
-0.65074 1.6484 0.98689
-0.7558 2.0134 -0.83667
-0.94738 2.1339 0.93931
-0.79876 1.9691 -1.1261
-0.77923 1.9674 0.9891
-0.61523 2.265 -1.3569
-0.66815 2.0005 0.95044
-0.86558 2.1699 -1.1787
-0.4819 2.5608 0.57206
-0.80727 2.3357 -1.2171
-0.95565 2.4912 0.84516
-0.88276 2.4074 -1.1171
-0.63016 2.202 0.78124
-0.75936 2.5094 -0.96584
-0.62427 2.4933 0.93389
-0.78389 2.7418 -1.3443
-0.31307 2.6047 0.63842
-1.1218 2.9994 -0.93464
-0.87838 2.4023 1.0266
-0.81378 2.9784 -1.2528
-0.77999 2.799 -1.1918
-0.51379 3.0905 -0.94712
-0.75464 2.9159 -0.82193
-0.81975 3.2204 -0.68492
-0.78401 2.8231 -0.3051
-0.65102 2.8408 -0.21891
-0.93164 2.9952 -0.53933
-0.70958 3.1078 -0.14728
-1.1022 2.6674 -0.021352
-0.81272 2.3865 0.072569
-0.98079 2.8655 0.12541
-0.92452 2.9511 0.19116
-0.74235 3.1993 0.13612
-1.0165 2.8519 0.17615
-0.98998 2.9205 0.4573
-1.0926 3.0332 0.62644
-1.2314 2.7822 0.7312
-0.82688 2.7051 0.41213
-0.57093 2.8578 0.71523
-0.83281 2.5566 0.99324
-0.74294 -0.99892 -1.0983
-0.90123 -1.2992 -1.0681
-0.38902 -1.4003 -0.94265
-0.74595 -1.086 -0.97098
-0.44536 -1.0042 -0.48878
-0.62688 -1.1431 -0.64602
-0.7486 -0.99398 -0.71032
-0.48663 -0.9505 -0.36724
-0.50605 -0.96458 -0.48665
-0.71908 -1.1379 -0.15607
-0.44499 -1.0457 -0.13646
-0.35047 -1.2049 0.17349
-0.71015 -0.80336 -0.16467
-0.74717 -1.2376 0.17979
-0.61857 -1.3218 0.34981
-0.62887 -1.2193 0.24999
-0.54011 -1.2326 0.50148
-0.74715 -1.3464 0.70907
-0.55811 -1.3461 0.47879
-0.49316 -0.76059 0.90243
-0.6628 -1.0843 1.1672
-0.66752 -1.2773 1.0096
-0.94165 -0.88956 0.75112
-0.92578 -1.284 1.1297
-0.98199 -0.79858 1.6285
-0.9397 -1.1542 1.2572
-0.72758 -1.2471 1.7028
-1.0119 -0.84025 1.5333
-0.25995 -1.206 1.5462
-0.5534 -1.0956 1.8133
-1.1 -0.95576 1.8382
-0.92222 -1.0408 2.1573
-0.71825 -1.2218 2.0391
-1.031 -1.5076 1.9252
-0.78694 -1.2497 2.2211
-0.4849 -0.96446 2.1704
-0.72929 -0.88774 2.8067
-0.71047 -1.0495 2.7356
-0.89244 -0.91682 2.811
-0.80559 -1.0345 3.0088
-0.96059 -0.81455 2.9127
-0.62644 -0.70542 -1.1702
-0.78544 -1.111 2.4931
-0.54481 -0.89345 -0.83238
-0.45642 -0.78028 2.8226
-0.48759 -0.54745 -1.0118
-0.70416 -0.76862 2.8934
-0.79553 -0.79764 -1.009
-0.93575 -0.7032 2.8595
-0.6743 -0.85697 -1.2297
-0.51052 -0.70102 3.036
-0.76377 -0.66477 -0.81921
-0.73113 -0.46187 2.6575
-0.57735 -0.44492 -0.76705
-0.52913 -0.17426 3.2703
-0.97332 -0.25912 -0.9522
-0.65843 -0.51813 3.0929
-0.65924 -0.11183 -1.2721
-0.72681 -0.39119 3.0462
-0.52351 -0.057 -1.0207
-0.7683 0.37884 3.1575
-0.85828 -0.082606 -0.88167
-0.64362 0.041899 2.8988
-0.60783 0.32577 -0.98323
-0.73973 -0.095064 3.0438
-0.54233 0.4469 -1.266
-0.99301 0.12456 3.0565
-0.90672 0.46479 -1.1259
-1.2957 0.19867 2.9159
-0.59583 0.73968 -0.91582
-0.89038 0.635 2.999
-0.74667 0.369 -0.84842
-0.50082 0.85886 2.7819
-0.68744 0.5482 -1.2006
-0.78315 0.75971 2.8344
-0.86261 0.73727 -1.1346
-0.74419 0.70168 2.9345
-0.57995 1.1982 -1.2351
-0.99267 0.50298 3.3498
-0.71069 0.6071 -1.0141
-0.545 1.0607 1.3165
-0.97406 0.48127 0.9758
-0.56702 1.0626 1.017
-0.56431 1.1572 1.1004
-0.86917 0.61315 1.5104
-0.99038 0.89629 1.5974
-0.61302 0.78602 1.441
-0.53997 1.0843 1.3207
-0.58463 0.7793 1.5374
-0.54881 1.0592 1.9065
-0.92759 0.75378 2.1466
-0.58367 1.1124 2.4415
-0.81033 0.97523 2.3368
-0.8067 0.67167 2.4482
-1.0004 0.67845 2.367
-0.48311 0.91366 2.3642
-0.66328 0.5174 2.2228
-0.50192 1.081 2.7762
-0.40311 1.1902 2.5453
-0.91885 1.0314 2.3894
-0.57215 0.77915 -0.86308
-0.69986 1.0495 0.88703
-0.51932 1.5384 -1.0189
-0.48165 1.3476 0.67879
-0.53759 1.3089 -1.1391
-0.8566 1.3729 0.92746
-0.72201 1.5643 -0.66139
-0.64593 1.34 1.0316
-0.082252 1.3819 -1.2361
-0.45849 1.3501 0.84487
-0.24543 1.5341 -1.3155
-0.61665 1.4574 1.1144
-0.65612 1.4538 -1.1741
-0.57796 1.4216 1.1627
-0.80016 1.821 -1.1544
-0.45557 1.5926 0.88163
-0.72807 1.6193 -1.3093
-0.96488 1.5356 0.74485
-0.52778 1.6351 -0.88179
-1.0028 2.0363 1.102
-1.0565 1.9317 -1.112
-0.64121 2.1232 1.1305
-0.88256 2.3393 -1.046
-0.87474 2.0507 0.63699
-0.72891 2.3439 -1.278
-0.79259 2.7666 0.75113
-0.74076 2.2373 -1.1683
-0.64439 2.3898 0.94208
-0.92495 2.3431 -1.0617
-0.93579 2.6202 0.77564
-1.1062 2.4247 -1.0363
-0.77337 2.4214 0.70161
-0.56801 2.7317 -1.036
-0.83414 2.5984 0.53764
-0.59974 2.5693 -1.1279
-0.59215 2.2806 1.0799
-0.50443 2.5284 -1.0692
-0.50469 2.6973 1.1737
-0.83153 3.0561 -1.1474
-0.86424 3.0387 -0.95966
-0.68795 3.009 -0.9849
-0.82686 3.1028 -0.84994
-0.41445 2.8638 -0.56299
-0.42865 2.9769 -0.52202
-0.67885 2.8906 -0.79493
-0.78056 2.9901 -0.41507
-0.5979 2.8665 -0.19807
-0.82518 3.1038 -0.29347
-0.72172 2.5985 -0.29516
-0.80068 3.3626 0.044949
-0.67681 2.85 0.23959
-0.47763 2.6627 0.39603
-0.55278 2.6796 0.78544
-0.47466 2.8946 0.61892
-0.87552 3.1562 0.5964
-0.66236 2.7189 0.71358
-0.88888 2.9842 0.86211
-0.62243 2.7418 0.92115
-0.63395 3.0885 0.84938
-0.34492 -1.2048 -1.437
-0.3833 -1.2527 -0.99374
-0.47016 -0.67352 -1.1863
-0.69574 -1.0429 -0.83291
-0.69007 -0.8426 -0.79656
-0.99692 -0.9109 -0.63095
-0.68468 -1.0564 -0.18645
-0.89947 -0.8338 -0.16457
-0.41629 -1.1196 0.086479
-0.42172 -0.99103 -0.27819
-0.57044 -1.4 -0.44718
-0.67107 -1.3354 0.25515
-0.56951 -0.94835 0.19571
-0.28479 -1.1663 0.23797
-0.33463 -1.1773 0.054262
-0.68471 -1.0225 0.41784
-0.56458 -1.6094 0.33184
-0.81559 -1.1675 0.56536
-0.51933 -1.3077 0.55673
-0.45344 -1.0054 0.69918
-0.42209 -1.0914 1.2214
-0.89558 -1.3957 1.3892
-0.4991 -1.1167 0.99817
-0.76568 -1.1413 1.1
-0.67071 -0.99526 1.4386
-0.44391 -1.2192 1.5588
-0.5393 -1.3602 1.1949
-0.62926 -1.1121 1.4508
-0.47921 -0.99975 1.4799
-0.27906 -1.0271 1.8928
-0.7188 -0.96872 2.153
-0.86031 -1.2798 1.9294
-0.82372 -1.2633 2.221
-0.78127 -1.2277 2.0582
-0.72809 -0.97716 2.2152
-0.48507 -1.0421 2.6516
-1.0036 -1.029 2.5415
-0.55142 -0.89922 2.711
-0.74897 -0.9654 2.8741
-0.38324 -1.1313 2.5954
-0.764 -1.0659 3.0667
-0.5959 -0.56346 -1.2447
-0.77997 -0.71661 3.0938
-0.73011 -0.98473 -0.92348
-0.64804 -1.2605 3.1651
-0.64193 -0.8738 -1.012
-0.69958 -0.77123 3.0521
-0.37763 -1.0864 -1.1818
-0.49024 -0.44364 2.6151
-0.23609 -0.32096 -1.1967
-0.65138 -0.59964 3.0369
-0.38965 -0.57375 -1.1865
-1.0062 -0.35104 2.9266
-0.47303 -0.255 -0.88824
-0.52503 -0.42232 3.209
-0.67025 -0.40572 -1.1124
-0.46196 -0.24721 2.7406
-0.42646 0.16515 -1.2355
-0.39608 -0.48074 3.2695
-0.51562 0.23721 -1.4573
-0.48032 -0.45498 2.9431
-0.72864 -0.16037 -1.1603
-0.81066 0.1145 2.8852
-0.64949 0.3187 -1.4436
-0.56104 -0.065539 2.6171
-0.41218 0.16683 -0.78898
-0.75133 0.043674 2.5609
-0.6927 0.002473 -0.80214
-0.018096 0.52483 2.8416
-0.71862 0.30888 -1.1447
-0.2234 0.40858 2.831
-0.41019 0.91414 -1.2772
-0.70601 0.56919 3.0393
-0.61813 0.59752 -1.1637
-0.63928 0.7429 2.977
-0.50516 0.74943 -0.91025
-0.33142 0.46768 2.969
-0.91634 0.94563 -1.1034
-0.20325 0.80426 3.1559
-0.4459 0.88529 -1.3266
-0.70427 1.051 0.81247
-0.62192 0.9407 1.0669
-0.53903 0.79591 0.84302
-0.5397 0.66748 1.4181
-0.36352 1.0294 1.2892
-0.38506 1.056 1.4362
-0.66723 0.94221 1.4911
-0.62268 0.92049 2.0897
-0.45448 0.88515 1.6842
-0.57394 0.87958 1.8995
-0.37607 0.86172 1.9054
-0.73112 1.1818 2.1343
-0.50551 1.1287 2.2116
-0.54122 0.83001 2.4464
-0.32631 1.0467 2.1709
-0.85941 0.78971 2.4351
-0.59723 0.76303 2.2489
-0.58696 0.87881 2.7541
-1.0535 0.94299 2.9852
-0.35431 0.7925 2.9822
-0.050277 0.72234 -1.2604
-0.64259 1.1585 1.0026
-0.54148 1.0157 -1.2006
-0.68786 1.1071 0.87131
-0.52253 1.3165 -1.0027
-0.67135 1.2189 0.5853
-0.6172 1.307 -1.2708
-0.28224 1.3722 0.81571
-0.76237 1.5095 -1.0457
-0.70953 1.2904 0.85868
-0.61216 1.5712 -1.1282
-0.62317 1.6208 0.80857
-0.31707 1.6713 -0.74089
-0.20179 1.3061 0.96503
-0.78788 1.9261 -1.2863
-0.72221 1.5 0.98408
-0.49601 2.1815 -1.5133
-0.67152 1.6738 1.0799
-0.20927 1.8599 -1.5178
-0.27879 2.1148 1.019
-0.48851 1.7381 -1.4243
-0.48761 2.0929 0.86009
-0.66328 2.2459 -1.3531
-0.44865 2.2074 0.94695
-0.37781 2.061 -1.2284
-0.5698 2.2913 0.81601
-0.22187 2.1119 -0.76101
-0.46677 2.3608 0.70573
-0.61882 2.2952 -0.93205
-0.52513 2.4395 0.7533
-0.38381 2.3438 -1.1754
-0.67492 2.5831 1.15
-0.61402 2.5068 -1.0042
-0.13518 2.4367 0.98885
-0.68967 2.2729 -0.87259
-0.41308 2.7943 0.78809
-0.43804 3.1412 -1.1298
-0.28792 2.6945 0.97981
-0.49493 3.1828 -1.0535
-1.0775 2.8667 -0.81879
-0.7634 2.7444 -1.2401
-0.49771 2.9187 -0.97412
-0.54717 2.8231 -0.94301
-0.21519 3.0379 -0.8986
-0.3235 2.7353 -0.38285
-0.50062 2.9278 -0.48359
-0.58124 2.9587 -0.50309
-0.89894 2.9274 -0.2363
-0.23452 2.9584 -0.43597
-0.57127 2.8201 -0.23561
-0.89846 2.6146 0.16346
-0.51299 2.9685 -0.13432
-0.57732 2.7185 0.59549
-0.70845 3.1195 0.14655
-0.50135 2.8426 0.4919
-0.73516 3.0706 0.46146
-0.8599 3.2384 0.66953
-0.93903 2.8365 0.88285
-0.66823 2.7854 1.1409
-0.6195 -0.88087 -0.8607
-0.41166 -1.0357 -1.0804
-0.79001 -1.0901 -0.93234
-0.53793 -1.0697 -0.74978
-0.7905 -1.2413 -0.37419
-0.14493 -0.89292 -0.4222
-0.52016 -1.1869 -0.81655
-0.25857 -0.88118 -0.54023
-0.40098 -1.1921 -0.51653
-0.32043 -0.81383 -0.38051
-0.72216 -1.0395 0.042142
-0.25247 -1.7016 -0.088803
-0.21449 -1.1329 0.41423
-0.90183 -0.852 0.30504
-0.53175 -1.1595 0.36518
-0.62437 -1.2241 0.81068
-0.46689 -1.01 0.42665
-0.66296 -0.81226 0.67445
-0.44303 -0.95288 0.82186
-0.38109 -1.0753 0.67736
-0.44972 -0.99704 0.93899
-0.52042 -0.99643 0.7265
-0.74849 -1.1325 1.3039
-0.48616 -1.0199 1.5723
-0.59883 -1.0999 1.3626
-0.74647 -0.96076 0.97644
-0.50833 -0.97642 1.869
-0.53821 -1.3754 1.3533
-0.45996 -1.2039 1.4554
-0.30412 -1.337 1.6348
-0.38515 -1.0787 1.8502
-0.24307 -1.541 1.7322
-0.63941 -1.1204 2.6964
-0.66575 -0.8913 2.0211
-0.51586 -1.0124 2.4749
-0.22799 -0.82248 2.536
-0.24348 -1.1002 2.3377
-0.52188 -1.2021 2.4234
-0.61362 -1.4547 3.0302
-0.79352 -0.5841 2.9438
-0.36653 -1.0407 2.6882
-0.49293 -0.78985 -1.1519
-0.72675 -0.89314 2.8807
-0.56253 -0.97281 -0.97317
-0.85366 -0.95962 3.0929
-0.41363 -1.289 -0.90205
-0.53126 -0.99335 3.0925
-0.17969 -0.77998 -1.0394
-0.76212 -0.82615 3.2303
-0.30837 -0.45568 -1.2612
-0.4694 -0.50845 3.3081
-0.48129 -0.59595 -0.96511
-0.3578 -0.72808 3.1867
-0.26494 -0.24512 -1.1405
-0.70596 -0.41303 2.7519
-0.24052 -0.2323 -0.99248
-0.73302 -0.22998 2.9954
-0.70656 -0.22065 -1.0019
-0.62836 -0.057894 2.9427
-0.35395 -0.052983 -0.9649
-0.70575 -0.088289 3
-0.43219 -0.20473 -1.2473
-0.41716 0.010388 2.6364
-0.46736 0.28118 -1.0081
-0.38937 0.023019 2.9362
-0.72579 0.28073 -1.0009
-0.30115 0.32629 2.6136
-0.47527 0.95126 -1.2233
-0.3552 0.16271 2.9415
-0.68891 0.3629 -0.83546
-0.48724 0.3189 2.6694
-0.32646 0.20408 -1.0718
-0.29987 0.5384 2.9453
-0.5138 0.666 -1.0417
-0.85835 0.53204 2.7448
-0.71098 0.69387 -1.2564
-0.4548 0.68269 2.7958
-0.3427 0.74377 -1.084
-0.40718 0.63639 2.9974
-0.61668 0.76254 -0.69458
-0.060278 0.72403 0.69133
-0.48329 1.0387 1.2957
-0.32882 0.89759 1.4058
-0.57833 0.96651 1.283
-0.71451 0.76609 1.2181
-0.36392 0.48073 1.4351
-0.29529 0.91232 1.5371
-0.1425 1.0246 1.8152
-0.6004 1.1253 1.8502
-0.81442 0.54786 2.0421
-0.18241 0.96044 1.987
-0.44593 0.9335 2.2167
-0.71689 0.91161 2.1836
-0.60627 0.88108 2.6517
-0.6549 1.2813 2.2654
-0.27127 0.67711 2.6454
-0.38206 0.94185 3.0419
-0.4501 0.98866 2.5894
-0.45054 0.51766 2.8164
-0.65736 0.98808 3.0524
-0.30397 1.2866 -1.0798
-0.42991 0.94676 1.0884
-0.54823 1.0459 -1.0397
-0.53335 0.81903 1.1689
-0.51719 1.2616 -1.1395
-0.67013 1.4045 0.56605
-0.35299 1.0577 -0.94365
-0.22624 1.0394 0.83248
-0.015583 1.2857 -1.0882
-0.39924 1.4213 1.0255
-0.65755 1.7209 -1.4751
-0.45823 1.6121 0.83266
-0.6935 1.5866 -0.98296
-0.61679 1.4383 0.45847
-0.62571 1.7145 -1.3149
-0.65965 1.8076 0.74361
-0.42372 1.6621 -1.1919
-0.71459 1.8474 1.0321
-0.36743 1.9552 -1.3561
-0.34248 2.161 0.87806
-0.29532 2.3057 -0.97411
-0.50135 1.6398 0.99415
-0.37683 2.3158 -1.085
-0.14623 1.9761 1.011
-0.48705 1.947 -0.79053
-0.53202 2.0845 0.92709
-0.15218 2.2097 -0.78079
-0.98596 2.3635 1.2531
-0.5863 2.3606 -1.1911
-0.024059 2.1393 0.82618
-0.58919 2.4348 -0.97908
-0.6065 2.1312 0.75626
-0.73623 2.9108 -1.4198
-0.34295 2.4773 0.95555
-0.90829 2.8381 -1.0126
-0.65306 2.8326 0.94103
-0.38696 2.6752 -1.2847
-0.49766 2.5052 0.82624
-0.37587 2.6044 -0.89672
-0.47275 3.0598 -0.96232
-0.36478 2.8793 -0.93501
-0.7481 3.1096 -0.90917
-0.4549 2.8115 -0.7681
-0.80246 2.3325 -0.59158
-0.34483 2.6913 -0.43815
-0.55786 3.0576 -0.53411
-0.36975 2.9431 -0.4913
-0.60205 3.2669 -0.18884
-0.43337 2.9701 -0.065623
-0.29209 2.5534 0.0092806
-0.88292 3.3861 -0.017293
-0.86105 3.1116 -0.12066
-0.85423 2.6183 0.26918
-0.33211 2.9457 0.57123
-0.41846 2.894 0.85527
-0.63418 2.7551 0.70325
-0.20544 2.5494 0.76808
-0.47054 2.7182 0.89276
-0.80641 2.9561 0.92366
-0.59585 -1.2056 -1.2556
-0.66715 -1.2643 -1.1161
-0.21141 -1.0878 -1.1209
-0.51444 -0.5899 -0.82576
-0.6256 -1.0495 -0.66154
-0.50977 -0.94755 -0.43368
-0.56027 -1.2028 -0.57695
-0.23126 -1.4007 -0.58407
-0.30441 -1.3169 -0.23373
-0.3385 -0.99176 -0.47711
-0.3164 -1.088 -0.30049
-0.38901 -1.1066 -0.31
-0.58216 -0.92971 0.11412
-0.2919 -0.69207 0.26633
-0.55729 -0.90984 0.1062
-0.60613 -1.1626 0.35713
-0.60655 -1.0387 0.62881
-0.22803 -0.91409 0.64794
-0.20632 -1.0837 0.64847
-0.73991 -0.81043 0.81493
-0.42622 -0.85666 0.8694
-0.34831 -0.98069 0.7528
-0.51625 -1.4005 1.2013
-0.24917 -1.3303 1.3538
-0.34782 -1.2939 1.3519
-0.42714 -0.89335 1.4711
-0.50593 -1.1024 1.5796
-0.26553 -0.72713 1.6693
-0.23197 -1.1208 1.6141
-0.30598 -1.0994 1.8806
-0.44407 -1.141 1.9991
-0.21801 -0.84733 2.2708
-0.57399 -0.89214 1.7734
-0.36925 -1.061 1.9043
-0.12542 -1.1948 2.4303
-0.43432 -1.1705 2.6232
-0.56171 -1.1681 2.5642
-0.01889 -0.96471 2.3694
-0.44546 -0.89992 2.5912
-0.31137 -0.77701 3
-0.55388 -0.89518 3.1426
-0.34136 -1.2073 -0.95955
-0.30642 -0.80145 2.616
-0.39649 -0.87275 -1.0092
-0.33387 -1.0355 2.5242
-0.16278 -0.83649 -1.0533
-0.67083 -0.82548 2.8792
-0.35734 -0.69699 -0.94965
-0.78516 -0.66977 2.8777
-0.39184 -0.62376 -1.2991
-0.021407 -0.68397 2.8441
-0.21409 -0.25735 -1.1213
-0.39872 -0.21556 2.6111
-0.46325 -0.29122 -1.0374
-0.2945 -0.38377 2.7308
-0.19154 -0.020407 -0.8803
-0.3945 -0.3692 2.9973
-0.0829 -0.25607 -1.1947
-0.55626 -0.18632 2.6855
-0.78644 0.096616 -1.425
-0.54309 -0.11721 3.0768
-0.43619 0.10959 -0.84091
-0.46997 -0.016875 2.9546
-0.5624 0.14606 -1.2123
-0.13695 -0.2826 2.9954
-0.71215 0.47463 -1.0869
-0.49316 0.39865 2.9559
-0.58615 0.096151 -0.76127
-0.48971 -0.17935 2.8631
-0.52711 0.72529 -1.0745
-0.30421 0.41413 2.6739
-0.60012 0.6845 -1.238
-0.5572 0.6181 3.1028
-0.37768 0.68318 -1.2044
-0.18627 0.83119 2.5433
-0.75854 0.79533 -0.98779
-0.046873 0.37058 3.0149
-0.56844 0.93499 -0.99646
-0.27123 0.73634 3.0637
-0.19297 0.94039 -1.2276
-0.1397 0.94539 1.0723
-0.49813 0.96947 1.0534
-0.39264 0.79401 1.2879
-0.429 0.79134 1.1321
-0.51533 0.69343 1.4546
-0.34446 1.1163 1.4623
-0.32753 0.92092 1.9808
-0.46599 0.99089 1.6797
-0.3716 1.1042 1.8847
0.12331 0.67749 1.9922
-0.39885 0.68163 1.9049
-0.25904 0.8683 2.3332
-0.48745 1.0371 2.282
-0.50018 0.7334 2.5028
-0.46472 0.75626 2.2707
-0.28743 1.0067 2.3451
-0.55347 0.96383 2.7083
-0.75824 1.0111 2.836
-0.38701 1.0375 2.9227
-0.48237 1.106 3.0937
-0.34284 0.66439 -1.0832
-0.3809 1.0308 0.88153
-0.25538 1.1743 -1.3016
-0.22195 0.77128 0.92062
-0.65554 1.2208 -0.9874
-0.69429 1.4105 1.1468
-0.29953 1.0064 -1.2391
-0.33771 1.3109 0.99652
-0.58028 1.2904 -0.9526
-0.15639 1.5403 1.1162
-0.39095 1.2841 -1.1232
-0.37331 1.2825 0.69214
-0.34403 1.8548 -1.1789
-0.2505 1.6965 0.74862
-0.10048 1.9694 -1.1008
-0.44839 1.8715 0.58311
-0.73443 1.9225 -1.2258
-0.2 1.826 0.78749
-0.57805 1.6452 -0.94766
-0.15517 1.9013 1.0933
-0.51218 2.0428 -0.9953
-0.10691 2.1013 0.77461
-0.55434 1.9249 -1.2108
-0.61405 2.1204 0.56897
-0.21101 2.5372 -0.83964
-0.66283 2.0952 0.54345
-0.26483 2.3233 -0.93587
-0.31211 2.3372 0.67992
-0.42528 2.2239 -1.0871
-0.46389 2.4731 0.85753
0.0033836 2.5438 -0.94399
-0.47032 2.0397 1.1749
-0.43442 3.0342 -1.1471
-0.58019 2.8705 1.1616
-0.5558 2.9384 -1.376
-0.51103 2.8696 0.64029
-0.064445 2.736 -0.97071
-0.47341 2.5691 1.0087
-0.53177 2.8111 -1.0678
-0.48467 3.0005 -1.3177
-0.25825 3.2747 -0.74684
-0.65361 2.7075 -0.55961
-0.27524 3.2663 -0.66763
-0.65664 2.6977 -0.63064
-0.42286 3.0591 -0.70018
-0.75316 2.8885 -0.43877
-0.293 2.5225 -0.095511
-0.26244 3.3894 -0.18038
-0.53128 2.6676 -0.099417
-0.33553 2.7649 0.11248
-0.36566 2.8148 -0.0467
-0.17164 2.8295 0.12685
-0.37237 2.9441 0.060049
-0.19494 2.9668 0.0929
-0.42012 3.3101 0.43333
-0.52363 3.1795 0.77305
-0.40477 3.0902 0.62168
-0.43619 2.7746 0.97594
-0.22567 3.1118 0.73889
-0.30831 -1.1361 -1.1184
-0.46121 -1.1536 -1.1419
-0.32753 -0.99106 -0.80934
-0.065896 -1.3302 -0.68672
-0.37818 -1.5658 -0.80289
-0.42564 -1.1779 -0.76429
-0.10574 -1.2616 -1.0604
-0.27766 -0.93118 -0.68471
-0.36801 -1.1485 -0.12857
-0.44126 -0.81701 0.19497
-0.58557 -1.1996 -0.017321
-0.26751 -0.9754 0.0099728
-0.35911 -1.0019 0.20685
-0.23527 -1.021 -0.12031
-0.58104 -1.2861 0.50847
-0.039948 -1.0857 0.43825
-0.20249 -1.122 0.33911
-0.60248 -1.2098 0.60338
-0.091513 -1.1568 0.71526
-0.41181 -1.1915 0.82235
-0.23852 -1.1578 1.0885
-0.25463 -1.2652 1.0269
-0.4684 -1.335 1.1256
-0.85463 -1.2231 1.4842
-0.19308 -1.1537 0.8604
-0.36399 -0.90254 1.4793
-0.41381 -1.2119 1.2231
-0.21579 -0.79406 1.6464
-0.43169 -1.3625 2.0072
-0.16666 -0.72733 1.4721
-0.26799 -1.0627 1.9242
-0.49043 -1.5193 1.852
-0.1344 -0.95971 2.2647
-0.20496 -1.5308 2.2642
-0.053516 -1.0309 2.0679
-0.47121 -0.65895 2.5219
-0.47173 -1.1297 2.6585
-0.23635 -1.0025 2.4177
-0.16747 -0.96631 2.5884
-0.1361 -1.1704 3.0753
-0.29611 -0.93758 2.8345
-0.34332 -1.0704 -0.92342
-0.17024 -0.82629 3.1942
0.085218 -1.0917 -0.91482
-0.1251 -0.88365 3.1761
-0.28091 -0.85396 -1.1847
-0.40926 -0.94896 3.0764
-0.20005 -0.68013 -0.80139
-0.39165 -0.98437 3.1284
-0.25094 -0.91673 -0.744
-0.14581 -0.8804 2.5713
-0.11737 -0.65383 -0.94124
-0.18284 -0.33328 2.9394
-0.029022 -0.38767 -1.0506
0.063147 -0.15433 3.1292
-0.66695 -0.10514 -1.0952
-0.64377 -0.39107 3.024
-0.47706 -0.46239 -1.269
-0.68647 -0.19198 2.9373
-0.36692 -0.16511 -0.98569
-0.36289 0.14102 2.9106
-0.2486 -0.14025 -1.1852
-0.24164 0.31024 3.0964
-0.43101 0.15214 -0.7889
-0.45577 0.19307 2.9935
-0.14286 0.063372 -1.3282
-0.37176 0.0047896 2.9079
-0.56442 0.26834 -1.117
-0.29537 0.30677 2.4091
-0.25762 0.11811 -1.1531
-0.37742 0.42413 3.0257
-0.16815 0.35293 -0.95982
-0.2534 0.58468 2.5094
-0.33883 0.79275 -1.1505
-0.30595 0.23437 3.0622
-0.20814 0.56131 -1.2207
-0.38334 0.64983 3.0359
-0.50283 0.36413 -1.2992
-0.32768 0.29741 3.0873
-0.27222 0.57281 -0.82295
-0.19816 1.077 1.1611
-0.30324 1.2178 1.0679
-0.38645 0.7784 1.1938
-0.18124 0.81468 1.1781
-0.31948 0.93724 1.3173
-0.14021 1.0612 1.624
-0.31486 1.074 1.6186
-0.2986 1.3907 1.732
-0.31526 0.9947 1.9713
-0.47679 0.67516 2.016
-0.4779 1.3542 2.0474
-0.48457 0.70829 2.2947
0.050221 0.76533 2.2155
-0.33636 1.0793 2.0516
-0.11423 0.93681 2.3848
-0.22938 0.91592 2.8678
0.06472 0.90378 2.558
-0.11683 0.64174 2.4735
-0.53633 0.65228 2.8402
-0.3611 0.57612 2.8157
-0.12373 1.1498 -0.93308
-0.24125 0.82817 1.1369
0.14377 0.7648 -1.1145
-0.3067 1.1954 1.0953
-0.5996 1.1532 -1.163
-0.21089 0.94884 0.8041
-0.47495 1.3592 -1.3791
-0.28775 1.3882 0.81401
-0.087426 1.5007 -0.82207
-0.23736 1.2838 0.95717
-0.23902 1.4337 -1.2245
-0.33578 1.4185 0.78467
-0.32589 1.6347 -1.19
-0.31745 1.702 1.0723
-0.84248 2.0226 -1.0948
-0.22078 1.5828 0.93918
-0.10452 1.6802 -1.0651
-0.55009 1.7682 0.88084
-0.59378 2.1288 -1.4172
-0.17643 1.825 1.1684
-0.59097 2.1834 -1.4062
-0.62444 1.8594 0.39034
-0.14372 1.9359 -1.1845
-0.4248 2.4557 1.0438
-0.05493 2.3702 -1.1036
-0.54904 2.3132 0.85134
-0.41702 2.3039 -1.1275
-0.2503 2.1858 0.97849
-0.19039 2.6315 -1.02
-0.2063 2.6229 1.0549
-0.26009 2.1595 -1.2447
-0.34213 2.2783 0.71823
-0.41018 2.5309 -0.93664
-0.2038 2.8917 0.84187
-0.37271 2.7788 -1.2339
-0.21527 2.9573 0.67873
-0.085544 2.6902 -1.2992
-0.73543 2.8955 0.82861
0.054048 2.7816 -0.98667
-0.42047 2.5374 -1.211
-0.040995 2.9626 -0.60041
0.0047976 2.9102 -0.50736
-0.58344 2.7543 -0.45474
-0.26292 2.7955 -0.57702
0.37768 2.7508 -0.58034
-0.33917 3.004 -0.19271
-0.20267 2.6999 -0.2931
-0.23294 3.0179 -0.14244
-0.050451 2.8458 0.11026
-0.084997 2.8566 -0.34331
-0.4817 2.7319 0.32829
-0.38277 2.7397 0.10318
-0.23053 2.7716 -0.032479
-0.30875 2.7235 0.35019
0.19631 2.765 0.32316
-0.21195 2.7776 0.43222
-0.21217 2.6067 0.51594
-0.46051 2.5627 0.92249
-0.55201 2.2933 0.75752
-0.042716 -0.9911 -1.2088
-0.23579 -1.2872 -0.96923
-0.070952 -1.0543 -1.1645
-0.3593 -1.1741 -0.62438
-0.022888 -0.93421 -1.2127
-0.55055 -1.0235 -0.67306
0.10774 -0.80922 -0.61463
-0.032519 -1.051 -0.259
-0.17592 -0.99241 -0.21814
-0.4235 -1.1711 -0.081495
-0.2748 -1.2755 -0.19566
-0.14785 -1.4332 0.36397
0.037842 -1.3644 0.010121
-0.39866 -0.75447 0.2033
0.054855 -1.3502 0.16728
0.34172 -0.99766 0.65097
-0.29384 -1.0841 0.3166
-0.10608 -0.96311 0.32395
-0.32538 -1.141 0.64182
-0.53175 -1.1507 1.2033
0.089009 -0.97467 0.85062
-0.062192 -1.1591 0.85624
-0.29683 -1.0503 1.1047
-0.17529 -0.82144 1.2466
-0.24213 -0.97681 1.2454
-0.48205 -1.2132 1.4966
-0.75871 -1.1512 1.2024
-0.20662 -0.82149 1.3236
-0.28744 -1.4449 1.0101
-0.30968 -1.0354 1.8184
-0.36213 -0.79614 2.1836
-0.55128 -1.0952 2.049
-0.29898 -1.0587 2.1265
-0.16594 -0.90922 2.3673
-0.40416 -0.64795 2.2361
-0.10964 -0.91136 2.2843
-0.2505 -1.2076 2.5553
-0.21713 -1.0963 2.744
-0.47569 -1.231 2.9091
-0.34624 -1.0953 2.5856
-0.1175 -1.5724 2.8559
-0.35121 -1.1933 -1.4639
-0.1659 -0.88835 2.865
0.18782 -0.80428 -1.2458
-0.042497 -1.1566 2.9858
0.0046522 -0.69764 -1.0092
0.2623 -0.75827 3.0925
0.031533 -0.49387 -0.83701
-0.11992 -0.65843 3.1907
0.18263 -0.78095 -1.4862
-0.37356 -0.77201 2.9097
-0.33022 -0.73836 -1.3468
0.19569 -0.45091 3.0458
-0.10889 -0.23268 -1.2156
-0.20557 -0.48022 2.7779
-0.10815 -0.3604 -1.209
-0.24882 -0.40423 2.7243
-0.25424 -0.62591 -1.1691
-0.2727 -0.44337 3.1145
-0.30527 -0.17846 -0.9495
-0.38117 -0.033719 2.9231
-0.20903 -0.16176 -1.1479
-0.30929 -0.23385 2.2967
0.083426 -0.1128 -1.2196
-0.15151 0.25778 2.9712
0.0015381 0.25664 -1.0172
-0.22461 0.23058 2.9614
-0.21326 0.45461 -1.3056
0.047669 0.46961 2.8839
0.088622 0.28078 -1.2386
-0.19096 0.067093 3.1368
0.13224 0.21871 -0.82614
-0.10473 0.67806 3.0752
-0.1256 0.69432 -1.1237
0.22952 0.33122 3.0274
0.1017 0.62187 -1.2694
-0.020686 0.69015 3.1756
-0.11903 0.82561 -0.9469
-0.30222 0.79072 2.8275
-0.21981 0.74078 -0.97432
0.15746 1.1175 0.9888
-0.59106 0.80527 1.2204
-0.32143 0.71772 1.067
-0.23414 0.52067 1.3503
-0.1685 0.65419 1.2699
-0.54479 1.4395 1.2421
-0.094339 0.78631 1.469
-0.05526 1.1915 1.6079
-0.38047 0.80122 1.9503
-0.24787 1.1017 1.694
-0.43371 0.78688 2.1246
0.11901 0.76415 1.9238
-0.12463 0.97168 2.4084
-0.24624 0.9337 2.3194
-0.37761 1.0379 2.3745
-0.17816 0.80435 2.2683
0.13064 1.0114 2.3802
-0.14377 0.76634 2.6596
-0.12857 1.0632 3.0501
-0.43115 1.0318 2.914
-0.16502 1.0604 -1.2944
-0.046217 0.79674 1.0761
-0.46641 0.78128 -1.1177
0.022357 0.98573 1.0718
0.28277 1.2268 -1.2055
-0.50078 0.90333 0.93953
-0.59985 1.4026 -1.3712
-0.21151 1.6167 0.74154
-0.049538 1.311 -0.96171
-0.21328 1.3744 1.0064
-0.22824 1.3022 -0.86416
-0.19611 1.4912 1.0012
-0.40471 1.4309 -1.0624
-0.51753 1.804 1.0447
0.11063 1.8526 -0.94187
-0.14039 1.748 1.1226
-0.42866 1.7477 -0.78921
0.012164 2.1202 1.0499
-0.45004 1.4824 -1.1274
-0.22109 1.9712 0.6441
-0.05311 2.1334 -1.2264
-0.3611 2.0115 0.74276
-0.26543 2.3602 -1.2071
-0.1916 1.9501 1.1879
0.18285 2.2145 -1.2762
-0.10798 2.4684 1.0328
-0.27514 2.1282 -1.3864
-0.24127 2.548 0.84388
-0.25196 2.0585 -1.1136
0.05711 2.3581 0.79307
-0.25276 2.7808 -0.90001
-0.35156 2.6099 0.83778
-0.15051 2.6016 -0.85616
-0.21581 2.6528 0.77286
-0.042893 2.5261 -1.3286
-0.010524 2.4112 1.0208
0.014338 2.3962 -0.72844
-0.071339 2.9205 1.1633
-0.074186 2.5285 -0.88795
0.17329 2.9794 -0.871
-0.42329 2.5499 -0.56944
-0.26501 3.0005 -0.5299
-0.52749 2.9562 -0.75875
-0.018325 2.9349 -0.56943
-0.19318 2.8284 -0.66936
-0.25567 3.1473 -0.42716
-0.53254 3.067 -0.14305
-0.16165 2.6619 -0.11793
-0.24796 2.8012 -0.29522
-0.46122 2.9835 0.24655
-0.42279 2.8288 0.29832
-0.34577 3.1119 0.43152
-0.24612 2.6574 0.36428
-0.51847 3.0048 0.59182
-0.23282 3.0437 0.60253
-0.07747 2.9699 0.70991
-0.27073 2.9508 0.69043
-0.33332 2.6384 0.73084
-0.13815 3.2267 0.6367
0.11706 -1.1246 -1.1212
-0.18435 -1.344 -1.1236
-0.18827 -1.2901 -1.0396
-0.377 -1.3789 -0.86731
-0.28779 -1.2794 -0.61677
0.020623 -0.97836 -0.86426
-0.11951 -1.1617 -0.46207
0.051523 -1.0603 -0.45979
0.033088 -0.93997 -0.63439
-0.024191 -1.2273 -0.67358
0.051931 -0.94989 0.076777
0.19932 -1.1336 -0.082881
0.014962 -1.1551 0.23159
-0.014417 -1.0331 0.25635
-0.10574 -1.1312 0.19525
-0.33931 -1.2101 0.56242
-0.19571 -0.76626 0.66206
-0.033915 -1.0879 0.63374
-0.31382 -1.0931 0.89613
-0.0061961 -1.1761 0.87669
-0.034546 -1.3835 1.0467
-0.077896 -0.85363 0.77738
-0.038671 -1.2849 1.3119
