1.1704 5.0384 0
8.1468 6.1281 0
3.2486 8.1942 0
2.4623 5.3189 0
3.4271 2.0208 0
3.7569 4.5389 0
5.4655 4.2791 0
5.6192 9.6605 0
3.9582 6.2006 0
3.9813 6.9539 0
5.1537 7.2016 0
6.5753 3.469 0
9.5092 5.1699 0
7.2235 5.5669 0
4.0008 1.565 0
8.3187 5.6206 0
1.3434 6.948 0
0.60467 4.2646 0
0.84247 8.3627 0
1.639 7.3139 0
3.2422 3.6003 0
3.0173 4.5421 0
0.11681 3.8639 0
5.3991 7.7555 0
0.95373 7.3427 0
1.4651 4.3028 10
6.3114 6.9375 10
8.5932 9.4521 10
9.7422 7.8423 10
5.7084 7.0557 10
9.9685 1.0933 10
5.5354 3.8993 10
5.1546 5.909 10
3.3068 4.5938 10
4.3 0.5034 10
4.9181 2.2869 10
0.71037 8.3419 10
8.8774 0.15645 10
0.64634 8.6371 10
4.3618 0.78069 10
8.2663 6.6904 10
3.9453 5.0021 10
6.1347 2.1799 10
8.1864 5.7162 10
8.8624 1.2219 10
9.3111 6.7117 10
1.9078 5.9959 10
2.5858 0.55976 10
8.9787 0.56343 10
5.9336 1.525 10
0 0.19621 1.4026
0 4.3518 2.6013
0 8.3222 0.86815
0 6.1739 4.294
0 5.2013 2.5728
0 8.6387 2.9756
0 0.97698 4.2486
0 9.0805 1.1921
0 1.0802 4.9507
0 5.17 7.0641
0 1.4316 2.4357
0 5.5937 7.8507
0 0.045796 0.7409
0 7.6668 3.9388
0 8.4871 0.033941
0 9.1682 2.2068
0 9.8697 0.013006
0 5.0513 1.8918
0 2.7142 1.4248
0 1.0075 2.6808
0 5.0785 1.7489
0 5.8561 1.3865
0 7.6289 5.9889
0 0.82963 9.0106
0 6.616 9.3938
10 5.1698 2.2118
10 1.7105 4.8267
10 9.3856 3.7601
10 5.9048 5.2378
10 4.4063 2.6487
10 9.4192 0.68357
10 6.5591 4.3633
10 4.5195 1.7385
10 8.397 0.26107
10 5.3262 9.5468
10 5.5389 4.306
10 6.8007 9.6156
10 3.6719 7.6241
10 2.3929 0.073487
10 5.7892 6.8004
10 8.6689 7.0595
10 4.0678 6.4513
10 1.1262 5.5231
10 4.4385 2.1811
10 3.0018 7.7237
10 4.0139 2.2803
10 8.3336 3.7086
10 4.0363 8.9093
10 3.9018 8.5638
10 3.6045 4.0243
3.1802 0 6.7227
6.0864 0 4.3151
9.102 0 6.944
9.091 0 2.5678
5.9159 0 0.097586
3.3257 0 5.3228
8.5306 0 2.7939
4.424 0 9.4623
9.0436 0 9.0644
0.33179 0 3.9268
5.3243 0 0.24855
7.165 0 6.7144
1.793 0 8.3717
3.3653 0 9.715
1.8771 0 0.56933
3.2193 0 4.5032
4.0386 0 5.8247
5.4857 0 6.8664
0.48739 0 7.1943
5.5273 0 6.5004
2.7481 0 7.2691
2.415 0 3.7385
2.4315 0 5.8158
1.5416 0 1.1612
9.5642 0 0.57654
9.3566 10 9.7977
8.1871 10 2.8482
7.2826 10 5.9497
1.7581 10 9.6216
3.6037 10 1.8578
1.8879 10 1.9304
0.011984 10 3.4164
3.1642 10 9.329
6.9962 10 3.9067
6.2526 10 2.7322
5.4306 10 1.5195
4.3904 10 3.9711
2.8743 10 3.7472
5.0166 10 1.3111
7.6155 10 4.3504
7.6241 10 0.91513
5.7606 10 6.1463
7.4766 10 0.10979
6.4553 10 5.7326
1.2322 10 7.8973
5.044 10 2.3537
3.4726 10 4.4802
0.92148 10 5.6936
1.4785 10 0.61401
1.9817 10 4.9629
0.81472 0.16218 0
0.90579 0.79428 0
0.12699 0.31122 0
0.91338 0.52853 0
0.63236 0.16565 0
0.09754 0.60198 0
0.2785 0.26297 0
0.54688 0.65408 0
0.95751 0.68921 0
0.96489 0.74815 0
0.15761 0.45054 0
0.97059 0.083821 0
0.95717 0.22898 0
0.48538 0.91334 0
0.80028 0.15238 0
0.14189 0.82582 0
0.42176 0.53834 0
0.91574 0.99613 0
0.79221 0.078176 0
0.95949 0.44268 0
0.65574 0.10665 0
0.035712 0.9619 0
0.84913 0.0046342 0
0.93399 0.77491 0
0.67874 0.8173 0
0.75774 0.86869 0
0.74313 0.084436 0
0.39223 0.39978 0
0.65548 0.25987 0
0.17119 0.80007 0
0.70605 0.43141 0
0.031833 0.91065 0
0.27692 0.18185 0
0.046171 0.2638 0
0.097132 0.14554 0
0.82346 0.13607 0
0.69483 0.86929 0
0.3171 0.5797 0
0.95022 0.54986 0
0.034446 0.14495 0
0.43874 0.85303 0
0.38156 0.62206 0
0.76552 0.35095 0
0.7952 0.51325 0
0.18687 0.40181 0
0.48976 0.075967 0
0.44559 0.23992 0
0.64631 0.12332 0
0.70936 0.18391 0
0.75469 0.23995 0
0.27603 0.41727 0
0.6797 0.049654 0
0.6551 0.90272 0
0.16261 0.94479 0
0.119 0.49086 0
0.49836 0.48925 0
0.95974 0.33772 0
0.34039 0.90005 0
0.58527 0.36925 0
0.22381 0.1112 0
0.75127 0.78025 0
0.2551 0.38974 0
0.50596 0.24169 0
0.69908 0.40391 0
0.8909 0.096455 0
0.95929 0.13197 0
0.54722 0.94205 0
0.13862 0.95613 0
0.14929 0.57521 0
0.25751 0.05978 0
0.84072 0.23478 0
0.25428 0.35316 0
0.81428 0.82119 0
0.24352 0.015403 0
0.92926 0.043024 0
0.34998 0.16899 0
0.1966 0.64912 0
0.25108 0.73172 0
0.61604 0.64775 0
0.47329 0.45092 0
0.35166 0.54701 0
0.83083 0.29632 0
0.58526 0.74469 0
0.54972 0.18896 0
0.91719 0.68678 0
0.28584 0.18351 0
0.7572 0.36848 0
0.75373 0.62562 0
0.38045 0.78023 0
0.56782 0.081126 0
0.075854 0.92939 0
0.05395 0.77571 0
0.5308 0.48679 0
0.77917 0.43586 0
0.93401 0.44678 0
0.12991 0.30635 0
0.56882 0.50851 0
0.46939 0.51077 0
0.011902 0.81763 0
0.33712 0.79483 0
