4.9 13.3 -0.059926
4.9 13.4 -0.077565
4.9 13.5 -0.096883
4.9 13.6 -0.11769
4.9 13.7 -0.13977
4.9 13.8 -0.16291
4.9 13.9 -0.18688
4.9 14 -0.21143
4.9 14.1 -0.23632
4.9 14.2 -0.26131
4.9 14.3 -0.28614
4.9 14.4 -0.31057
4.9 14.5 -0.33434
4.9 14.6 -0.35723
4.9 14.7 -0.37901
4.9 14.8 -0.39945
4.9 14.9 -0.41836
4.9 15 -0.43554
5 -15 -0.42965
5 -14.9 -0.41247
5 -14.8 -0.39357
5 -14.7 -0.37313
5 -14.6 -0.35135
5 -14.5 -0.32846
5 -14.4 -0.30469
5 -14.3 -0.28026
5 -14.2 -0.25543
5 -14.1 -0.23044
5 -14 -0.20555
5 -13.9 -0.18099
5 -13.8 -0.15703
5 -13.7 -0.13389
5 -13.6 -0.11181
5 -13.5 -0.091001
5 -13.4 -0.071683
5 -13.3 -0.054044
5 -13.2 -0.03826
5 -13.1 -0.024489
5 -13 -0.012869
5 -12.9 -0.0035161
5 -12.8 0.0034771
5 -12.7 0.0080401
5 -12.6 0.010128
5 -12.5 0.0097185
5 -12.4 0.006817
5 -12.3 0.0014521
5 -12.2 -0.0063227
5 -12.1 -0.01643
5 -12 -0.028768
5 -11.9 -0.043213
5 -11.8 -0.059623
5 -11.7 -0.077832
5 -11.6 -0.097659
5 -11.5 -0.1189
5 -11.4 -0.14136
5 -11.3 -0.16479
5 -11.2 -0.18898
5 -11.1 -0.21367
5 -11 -0.23862
5 -10.9 -0.26359
5 -10.8 -0.28831
5 -10.7 -0.31255
5 -10.6 -0.33607
5 -10.5 -0.35862
5 -10.4 -0.37998
5 -10.3 -0.39994
5 -10.2 -0.4183
5 -10.1 -0.43487
5 -10 -0.4495
5 -9.9 -0.46203
5 -9.8 -0.47234
5 -9.7 -0.48032
5 -9.6 -0.4859
5 -9.5 -0.48902
5 -9.4 -0.48965
5 -9.3 -0.48779
5 -9.2 -0.48344
5 -9.1 -0.47666
5 -9 -0.46751
5 -8.9 -0.45609
5 -8.8 -0.4425
5 -8.7 -0.42689
5 -8.6 -0.40941
5 -8.5 -0.39023
5 -8.4 -0.36955
5 -8.3 -0.34758
5 -8.2 -0.32452
5 -8.1 -0.30062
5 -8 -0.27611
5 -7.9 -0.25123
5 -7.8 -0.22624
5 -7.7 -0.20139
5 -7.6 -0.17692
5 -7.5 -0.15307
5 -7.4 -0.13009
5 -7.3 -0.10821
5 -7.2 -0.087643
5 -7.1 -0.068594
5 -7 -0.051256
5 -6.9 -0.0358
5 -6.8 -0.022382
5 -6.7 -0.011135
5 -6.6 -0.0021729
5 -6.5 0.0044158
5 -6.4 0.0085652
5 -6.3 0.010234
5 -6.2 0.0094045
5 -6.1 0.006086
5 -6 0.0003115
5 -5.9 -0.0078615
5 -5.8 -0.018351
5 -5.7 -0.031053
5 -5.6 -0.04584
5 -5.5 -0.062564
5 -5.4 -0.081058
5 -5.3 -0.10114
5 -5.2 -0.1226
5 -5.1 -0.14524
5 -5 -0.16882
5 -4.9 -0.1931
5 -4.8 -0.21786
5 -4.7 -0.24283
5 -4.6 -0.26777
5 -4.5 -0.29243
5 -4.4 -0.31656
5 -4.3 -0.33993
5 -4.2 -0.3623
5 -4.1 -0.38344
5 -4 -0.40314
5 -3.9 -0.42121
5 -3.8 -0.43747
5 -3.7 -0.45176
5 -3.6 -0.46392
5 -3.5 -0.47385
5 -3.4 -0.48143
5 -3.3 -0.4866
5 -3.2 -0.4893
5 -3.1 -0.48951
5 -3 -0.48723
5 -2.9 -0.48247
5 -2.8 -0.47529
5 -2.7 -0.46575
5 -2.6 -0.45395
5 -2.5 -0.44002
5 -2.4 -0.42408
5 -2.3 -0.4063
5 -2.2 -0.38686
5 -2.1 -0.36594
5 -2 -0.34377
5 -1.9 -0.32055
5 -1.8 -0.29653
5 -1.7 -0.27194
5 -1.6 -0.24703
5 -1.5 -0.22205
5 -1.4 -0.19724
5 -1.3 -0.17286
5 -1.2 -0.14914
5 -1.1 -0.12633
5 -1 -0.10466
5 -0.9 -0.084329
5 -0.8 -0.065554
5 -0.7 -0.048521
5 -0.6 -0.033397
5 -0.5 -0.020335
5 -0.4 -0.0094658
5 -0.3 -0.00089695
5 -0.2 0.0052856
5 -0.1 0.00902
5 0 0.010269
5 0.1 0.00902
5 0.2 0.0052856
5 0.3 -0.00089695
5 0.4 -0.0094658
5 0.5 -0.020335
5 0.6 -0.033397
5 0.7 -0.048521
5 0.8 -0.065554
5 0.9 -0.084329
5 1 -0.10466
5 1.1 -0.12633
5 1.2 -0.14914
5 1.3 -0.17286
5 1.4 -0.19724
5 1.5 -0.22205
5 1.6 -0.24703
5 1.7 -0.27194
5 1.8 -0.29653
5 1.9 -0.32055
5 2 -0.34377
5 2.1 -0.36594
5 2.2 -0.38686
5 2.3 -0.4063
5 2.4 -0.42408
5 2.5 -0.44002
5 2.6 -0.45395
5 2.7 -0.46575
5 2.8 -0.47529
5 2.9 -0.48247
5 3 -0.48723
5 3.1 -0.48951
5 3.2 -0.4893
5 3.3 -0.4866
5 3.4 -0.48143
5 3.5 -0.47385
5 3.6 -0.46392
5 3.7 -0.45176
5 3.8 -0.43747
5 3.9 -0.42121
5 4 -0.40314
5 4.1 -0.38344
5 4.2 -0.3623
5 4.3 -0.33993
5 4.4 -0.31656
5 4.5 -0.29243
5 4.6 -0.26777
5 4.7 -0.24283
5 4.8 -0.21786
5 4.9 -0.1931
5 5 -0.16882
5 5.1 -0.14524
5 5.2 -0.1226
5 5.3 -0.10114
5 5.4 -0.081058
5 5.5 -0.062564
5 5.6 -0.04584
5 5.7 -0.031053
5 5.8 -0.018351
5 5.9 -0.0078615
5 6 0.0003115
5 6.1 0.006086
5 6.2 0.0094045
5 6.3 0.010234
5 6.4 0.0085652
5 6.5 0.0044158
5 6.6 -0.0021729
5 6.7 -0.011135
5 6.8 -0.022382
5 6.9 -0.0358
5 7 -0.051256
5 7.1 -0.068594
5 7.2 -0.087643
5 7.3 -0.10821
5 7.4 -0.13009
5 7.5 -0.15307
5 7.6 -0.17692
5 7.7 -0.20139
5 7.8 -0.22624
5 7.9 -0.25123
5 8 -0.27611
5 8.1 -0.30062
5 8.2 -0.32452
5 8.3 -0.34758
5 8.4 -0.36955
5 8.5 -0.39023
5 8.6 -0.40941
5 8.7 -0.42689
5 8.8 -0.4425
5 8.9 -0.45609
5 9 -0.46751
5 9.1 -0.47666
5 9.2 -0.48344
5 9.3 -0.48779
5 9.4 -0.48965
5 9.5 -0.48902
5 9.6 -0.4859
5 9.7 -0.48032
5 9.8 -0.47234
5 9.9 -0.46203
5 10 -0.4495
5 10.1 -0.43487
5 10.2 -0.4183
5 10.3 -0.39994
5 10.4 -0.37998
5 10.5 -0.35862
5 10.6 -0.33607
5 10.7 -0.31255
5 10.8 -0.28831
5 10.9 -0.26359
5 11 -0.23862
5 11.1 -0.21367
5 11.2 -0.18898
5 11.3 -0.16479
5 11.4 -0.14136
5 11.5 -0.1189
5 11.6 -0.097659
5 11.7 -0.077832
5 11.8 -0.059623
5 11.9 -0.043213
5 12 -0.028768
5 12.1 -0.01643
5 12.2 -0.0063227
5 12.3 0.0014521
5 12.4 0.006817
5 12.5 0.0097185
5 12.6 0.010128
5 12.7 0.0080401
5 12.8 0.0034771
5 12.9 -0.0035161
5 13 -0.012869
5 13.1 -0.024489
5 13.2 -0.03826
5 13.3 -0.054044
5 13.4 -0.071683
5 13.5 -0.091001
5 13.6 -0.11181
5 13.7 -0.13389
5 13.8 -0.15703
5 13.9 -0.18099
5 14 -0.20555
5 14.1 -0.23044
5 14.2 -0.25543
5 14.3 -0.28026
5 14.4 -0.30469
5 14.5 -0.32846
5 14.6 -0.35135
5 14.7 -0.37313
5 14.8 -0.39357
5 14.9 -0.41247
5 15 -0.42965
5.1 -15 -0.42138
5.1 -14.9 -0.4042
5.1 -14.8 -0.38529
5.1 -14.7 -0.36485
5.1 -14.6 -0.34307
5.1 -14.5 -0.32018
5.1 -14.4 -0.29641
5.1 -14.3 -0.27198
5.1 -14.2 -0.24715
5.1 -14.1 -0.22216
5.1 -14 -0.19727
5.1 -13.9 -0.17272
5.1 -13.8 -0.14875
5.1 -13.7 -0.12561
5.1 -13.6 -0.10353
5.1 -13.5 -0.082724
5.1 -13.4 -0.063405
5.1 -13.3 -0.045766
5.1 -13.2 -0.029983
5.1 -13.1 -0.016212
5.1 -13 -0.004592
5.1 -12.9 0.0047613
5.1 -12.8 0.011754
5.1 -12.7 0.016318
5.1 -12.6 0.018405
5.1 -12.5 0.017996
5.1 -12.4 0.015094
5.1 -12.3 0.0097295
5.1 -12.2 0.0019547
5.1 -12.1 -0.0081521
5.1 -12 -0.02049
5.1 -11.9 -0.034936
5.1 -11.8 -0.051346
5.1 -11.7 -0.069555
5.1 -11.6 -0.089381
5.1 -11.5 -0.11063
5.1 -11.4 -0.13308
5.1 -11.3 -0.15652
5.1 -11.2 -0.1807
5.1 -11.1 -0.20539
5.1 -11 -0.23035
5.1 -10.9 -0.25531
5.1 -10.8 -0.28004
5.1 -10.7 -0.30428
5.1 -10.6 -0.32779
5.1 -10.5 -0.35034
5.1 -10.4 -0.3717
5.1 -10.3 -0.39166
5.1 -10.2 -0.41002
5.1 -10.1 -0.4266
5.1 -10 -0.44122
5.1 -9.9 -0.45375
5.1 -9.8 -0.46406
5.1 -9.7 -0.47204
5.1 -9.6 -0.47763
5.1 -9.5 -0.48075
5.1 -9.4 -0.48138
5.1 -9.3 -0.47951
5.1 -9.2 -0.47516
5.1 -9.1 -0.46838
5.1 -9 -0.45924
5.1 -8.9 -0.44781
5.1 -8.8 -0.43423
5.1 -8.7 -0.41862
5.1 -8.6 -0.40113
5.1 -8.5 -0.38196
5.1 -8.4 -0.36128
5.1 -8.3 -0.3393
5.1 -8.2 -0.31624
5.1 -8.1 -0.29234
5.1 -8 -0.26783
5.1 -7.9 -0.24295
5.1 -7.8 -0.21796
5.1 -7.7 -0.19311
5.1 -7.6 -0.16864
5.1 -7.5 -0.14479
5.1 -7.4 -0.12182
5.1 -7.3 -0.099934
5.1 -7.2 -0.079366
5.1 -7.1 -0.060317
5.1 -7 -0.042978
5.1 -6.9 -0.027522
5.1 -6.8 -0.014104
5.1 -6.7 -0.0028579
5.1 -6.6 0.0061045
5.1 -6.5 0.012693
5.1 -6.4 0.016843
5.1 -6.3 0.018511
5.1 -6.2 0.017682
5.1 -6.1 0.014363
5.1 -6 0.0085889
5.1 -5.9 0.00041594
5.1 -5.8 -0.010074
5.1 -5.7 -0.022775
5.1 -5.6 -0.037562
5.1 -5.5 -0.054286
5.1 -5.4 -0.07278
5.1 -5.3 -0.09286
5.1 -5.2 -0.11432
5.1 -5.1 -0.13696
5.1 -5 -0.16054
5.1 -4.9 -0.18483
5.1 -4.8 -0.20958
5.1 -4.7 -0.23455
5.1 -4.6 -0.25949
5.1 -4.5 -0.28415
5.1 -4.4 -0.30829
5.1 -4.3 -0.33165
5.1 -4.2 -0.35402
5.1 -4.1 -0.37516
5.1 -4 -0.39486
5.1 -3.9 -0.41294
5.1 -3.8 -0.4292
5.1 -3.7 -0.44348
5.1 -3.6 -0.45564
5.1 -3.5 -0.46557
5.1 -3.4 -0.47315
5.1 -3.3 -0.47832
5.1 -3.2 -0.48103
5.1 -3.1 -0.48124
5.1 -3 -0.47895
5.1 -2.9 -0.47419
5.1 -2.8 -0.46701
5.1 -2.7 -0.45747
5.1 -2.6 -0.44568
5.1 -2.5 -0.43174
5.1 -2.4 -0.4158
5.1 -2.3 -0.39802
5.1 -2.2 -0.37858
5.1 -2.1 -0.35767
5.1 -2 -0.33549
5.1 -1.9 -0.31228
5.1 -1.8 -0.28825
5.1 -1.7 -0.26366
5.1 -1.6 -0.23875
5.1 -1.5 -0.21377
5.1 -1.4 -0.18896
5.1 -1.3 -0.16458
5.1 -1.2 -0.14086
5.1 -1.1 -0.11805
5.1 -1 -0.096378
5.1 -0.9 -0.076051
5.1 -0.8 -0.057277
5.1 -0.7 -0.040243
5.1 -0.6 -0.02512
5.1 -0.5 -0.012058
5.1 -0.4 -0.0011884
5.1 -0.3 0.0073805
5.1 -0.2 0.013563
5.1 -0.1 0.017297
5.1 0 0.018546
5.1 0.1 0.017297
5.1 0.2 0.013563
5.1 0.3 0.0073805
5.1 0.4 -0.0011884
5.1 0.5 -0.012058
5.1 0.6 -0.02512
5.1 0.7 -0.040243
5.1 0.8 -0.057277
5.1 0.9 -0.076051
5.1 1 -0.096378
5.1 1.1 -0.11805
5.1 1.2 -0.14086
5.1 1.3 -0.16458
5.1 1.4 -0.18896
5.1 1.5 -0.21377
5.1 1.6 -0.23875
5.1 1.7 -0.26366
5.1 1.8 -0.28825
5.1 1.9 -0.31228
5.1 2 -0.33549
5.1 2.1 -0.35767
5.1 2.2 -0.37858
5.1 2.3 -0.39802
5.1 2.4 -0.4158
5.1 2.5 -0.43174
5.1 2.6 -0.44568
5.1 2.7 -0.45747
5.1 2.8 -0.46701
5.1 2.9 -0.47419
5.1 3 -0.47895
5.1 3.1 -0.48124
5.1 3.2 -0.48103
5.1 3.3 -0.47832
5.1 3.4 -0.47315
5.1 3.5 -0.46557
5.1 3.6 -0.45564
5.1 3.7 -0.44348
5.1 3.8 -0.4292
5.1 3.9 -0.41294
5.1 4 -0.39486
5.1 4.1 -0.37516
5.1 4.2 -0.35402
5.1 4.3 -0.33165
5.1 4.4 -0.30829
5.1 4.5 -0.28415
5.1 4.6 -0.25949
5.1 4.7 -0.23455
5.1 4.8 -0.20958
5.1 4.9 -0.18483
5.1 5 -0.16054
5.1 5.1 -0.13696
5.1 5.2 -0.11432
5.1 5.3 -0.09286
5.1 5.4 -0.07278
5.1 5.5 -0.054286
5.1 5.6 -0.037562
5.1 5.7 -0.022775
5.1 5.8 -0.010074
5.1 5.9 0.00041594
5.1 6 0.0085889
5.1 6.1 0.014363
5.1 6.2 0.017682
5.1 6.3 0.018511
5.1 6.4 0.016843
5.1 6.5 0.012693
5.1 6.6 0.0061045
5.1 6.7 -0.0028579
5.1 6.8 -0.014104
5.1 6.9 -0.027522
5.1 7 -0.042978
5.1 7.1 -0.060317
5.1 7.2 -0.079366
5.1 7.3 -0.099934
5.1 7.4 -0.12182
5.1 7.5 -0.14479
5.1 7.6 -0.16864
5.1 7.7 -0.19311
5.1 7.8 -0.21796
5.1 7.9 -0.24295
5.1 8 -0.26783
5.1 8.1 -0.29234
5.1 8.2 -0.31624
5.1 8.3 -0.3393
5.1 8.4 -0.36128
5.1 8.5 -0.38196
5.1 8.6 -0.40113
5.1 8.7 -0.41862
5.1 8.8 -0.43423
5.1 8.9 -0.44781
5.1 9 -0.45924
5.1 9.1 -0.46838
5.1 9.2 -0.47516
5.1 9.3 -0.47951
5.1 9.4 -0.48138
5.1 9.5 -0.48075
5.1 9.6 -0.47763
5.1 9.7 -0.47204
5.1 9.8 -0.46406
5.1 9.9 -0.45375
5.1 10 -0.44122
5.1 10.1 -0.4266
5.1 10.2 -0.41002
5.1 10.3 -0.39166
5.1 10.4 -0.3717
5.1 10.5 -0.35034
5.1 10.6 -0.32779
5.1 10.7 -0.30428
5.1 10.8 -0.28004
5.1 10.9 -0.25531
5.1 11 -0.23035
5.1 11.1 -0.20539
5.1 11.2 -0.1807
5.1 11.3 -0.15652
5.1 11.4 -0.13308
5.1 11.5 -0.11063
5.1 11.6 -0.089381
5.1 11.7 -0.069555
5.1 11.8 -0.051346
5.1 11.9 -0.034936
5.1 12 -0.02049
5.1 12.1 -0.0081521
5.1 12.2 0.0019547
5.1 12.3 0.0097295
5.1 12.4 0.015094
5.1 12.5 0.017996
5.1 12.6 0.018405
5.1 12.7 0.016318
5.1 12.8 0.011754
5.1 12.9 0.0047613
5.1 13 -0.004592
5.1 13.1 -0.016212
5.1 13.2 -0.029983
5.1 13.3 -0.045766
5.1 13.4 -0.063405
5.1 13.5 -0.082724
5.1 13.6 -0.10353
5.1 13.7 -0.12561
5.1 13.8 -0.14875
5.1 13.9 -0.17272
5.1 14 -0.19727
5.1 14.1 -0.22216
5.1 14.2 -0.24715
5.1 14.3 -0.27198
5.1 14.4 -0.29641
5.1 14.5 -0.32018
5.1 14.6 -0.34307
5.1 14.7 -0.36485
5.1 14.8 -0.38529
5.1 14.9 -0.4042
5.1 15 -0.42138
5.2 -15 -0.41079
5.2 -14.9 -0.39361
5.2 -14.8 -0.3747
5.2 -14.7 -0.35426
5.2 -14.6 -0.33248
5.2 -14.5 -0.30959
5.2 -14.4 -0.28582
5.2 -14.3 -0.26139
5.2 -14.2 -0.23656
5.2 -14.1 -0.21157
5.2 -14 -0.18668
5.2 -13.9 -0.16213
5.2 -13.8 -0.13816
5.2 -13.7 -0.11502
5.2 -13.6 -0.092938
5.2 -13.5 -0.072133
5.2 -13.4 -0.052815
5.2 -13.3 -0.035176
5.2 -13.2 -0.019393
5.2 -13.1 -0.005622
5.2 -13 0.005998
5.2 -12.9 0.015351
5.2 -12.8 0.022344
5.2 -12.7 0.026908
5.2 -12.6 0.028995
5.2 -12.5 0.028586
5.2 -12.4 0.025684
5.2 -12.3 0.020319
5.2 -12.2 0.012545
5.2 -12.1 0.0024379
5.2 -12 -0.0099002
5.2 -11.9 -0.024346
5.2 -11.8 -0.040756
5.2 -11.7 -0.058965
5.2 -11.6 -0.078791
5.2 -11.5 -0.10004
5.2 -11.4 -0.12249
5.2 -11.3 -0.14593
5.2 -11.2 -0.17011
5.2 -11.1 -0.1948
5.2 -11 -0.21976
5.2 -10.9 -0.24472
5.2 -10.8 -0.26945
5.2 -10.7 -0.29369
5.2 -10.6 -0.3172
5.2 -10.5 -0.33975
5.2 -10.4 -0.36111
5.2 -10.3 -0.38107
5.2 -10.2 -0.39943
5.2 -10.1 -0.41601
5.2 -10 -0.43063
5.2 -9.9 -0.44316
5.2 -9.8 -0.45347
5.2 -9.7 -0.46145
5.2 -9.6 -0.46704
5.2 -9.5 -0.47016
5.2 -9.4 -0.47079
5.2 -9.3 -0.46892
5.2 -9.2 -0.46457
5.2 -9.1 -0.45779
5.2 -9 -0.44865
5.2 -8.9 -0.43722
5.2 -8.8 -0.42364
5.2 -8.7 -0.40803
5.2 -8.6 -0.39054
5.2 -8.5 -0.37137
5.2 -8.4 -0.35069
5.2 -8.3 -0.32871
5.2 -8.2 -0.30565
5.2 -8.1 -0.28175
5.2 -8 -0.25724
5.2 -7.9 -0.23236
5.2 -7.8 -0.20737
5.2 -7.7 -0.18252
5.2 -7.6 -0.15805
5.2 -7.5 -0.1342
5.2 -7.4 -0.11123
5.2 -7.3 -0.089344
5.2 -7.2 -0.068776
5.2 -7.1 -0.049727
5.2 -7 -0.032388
5.2 -6.9 -0.016932
5.2 -6.8 -0.0035143
5.2 -6.7 0.0077321
5.2 -6.6 0.016694
5.2 -6.5 0.023283
5.2 -6.4 0.027433
5.2 -6.3 0.029101
5.2 -6.2 0.028272
5.2 -6.1 0.024953
5.2 -6 0.019179
5.2 -5.9 0.011006
5.2 -5.8 0.00051622
5.2 -5.7 -0.012185
5.2 -5.6 -0.026972
5.2 -5.5 -0.043696
5.2 -5.4 -0.06219
5.2 -5.3 -0.08227
5.2 -5.2 -0.10373
5.2 -5.1 -0.12637
5.2 -5 -0.14995
5.2 -4.9 -0.17424
5.2 -4.8 -0.19899
5.2 -4.7 -0.22396
5.2 -4.6 -0.2489
5.2 -4.5 -0.27356
5.2 -4.4 -0.2977
5.2 -4.3 -0.32106
5.2 -4.2 -0.34343
5.2 -4.1 -0.36457
5.2 -4 -0.38427
5.2 -3.9 -0.40235
5.2 -3.8 -0.41861
5.2 -3.7 -0.43289
5.2 -3.6 -0.44505
5.2 -3.5 -0.45498
5.2 -3.4 -0.46256
5.2 -3.3 -0.46773
5.2 -3.2 -0.47044
5.2 -3.1 -0.47065
5.2 -3 -0.46836
5.2 -2.9 -0.4636
5.2 -2.8 -0.45642
5.2 -2.7 -0.44688
5.2 -2.6 -0.43509
5.2 -2.5 -0.42115
5.2 -2.4 -0.40521
5.2 -2.3 -0.38743
5.2 -2.2 -0.36799
5.2 -2.1 -0.34708
5.2 -2 -0.3249
5.2 -1.9 -0.30169
5.2 -1.8 -0.27766
5.2 -1.7 -0.25307
5.2 -1.6 -0.22816
5.2 -1.5 -0.20318
5.2 -1.4 -0.17837
5.2 -1.3 -0.15399
5.2 -1.2 -0.13027
5.2 -1.1 -0.10746
5.2 -1 -0.085788
5.2 -0.9 -0.065461
5.2 -0.8 -0.046687
5.2 -0.7 -0.029653
5.2 -0.6 -0.01453
5.2 -0.5 -0.001468
5.2 -0.4 0.0094016
5.2 -0.3 0.01797
5.2 -0.2 0.024153
5.2 -0.1 0.027887
5.2 0 0.029136
5.2 0.1 0.027887
5.2 0.2 0.024153
5.2 0.3 0.01797
5.2 0.4 0.0094016
5.2 0.5 -0.001468
5.2 0.6 -0.01453
5.2 0.7 -0.029653
5.2 0.8 -0.046687
5.2 0.9 -0.065461
5.2 1 -0.085788
5.2 1.1 -0.10746
5.2 1.2 -0.13027
5.2 1.3 -0.15399
5.2 1.4 -0.17837
5.2 1.5 -0.20318
5.2 1.6 -0.22816
5.2 1.7 -0.25307
5.2 1.8 -0.27766
5.2 1.9 -0.30169
5.2 2 -0.3249
5.2 2.1 -0.34708
5.2 2.2 -0.36799
5.2 2.3 -0.38743
5.2 2.4 -0.40521
5.2 2.5 -0.42115
5.2 2.6 -0.43509
5.2 2.7 -0.44688
5.2 2.8 -0.45642
5.2 2.9 -0.4636
5.2 3 -0.46836
5.2 3.1 -0.47065
5.2 3.2 -0.47044
5.2 3.3 -0.46773
5.2 3.4 -0.46256
5.2 3.5 -0.45498
5.2 3.6 -0.44505
5.2 3.7 -0.43289
5.2 3.8 -0.41861
5.2 3.9 -0.40235
5.2 4 -0.38427
5.2 4.1 -0.36457
5.2 4.2 -0.34343
5.2 4.3 -0.32106
5.2 4.4 -0.2977
5.2 4.5 -0.27356
5.2 4.6 -0.2489
5.2 4.7 -0.22396
5.2 4.8 -0.19899
5.2 4.9 -0.17424
5.2 5 -0.14995
5.2 5.1 -0.12637
5.2 5.2 -0.10373
5.2 5.3 -0.08227
5.2 5.4 -0.06219
5.2 5.5 -0.043696
5.2 5.6 -0.026972
5.2 5.7 -0.012185
5.2 5.8 0.00051622
5.2 5.9 0.011006
5.2 6 0.019179
5.2 6.1 0.024953
5.2 6.2 0.028272
5.2 6.3 0.029101
5.2 6.4 0.027433
5.2 6.5 0.023283
5.2 6.6 0.016694
5.2 6.7 0.0077321
5.2 6.8 -0.0035143
5.2 6.9 -0.016932
5.2 7 -0.032388
5.2 7.1 -0.049727
5.2 7.2 -0.068776
5.2 7.3 -0.089344
5.2 7.4 -0.11123
5.2 7.5 -0.1342
5.2 7.6 -0.15805
5.2 7.7 -0.18252
5.2 7.8 -0.20737
5.2 7.9 -0.23236
5.2 8 -0.25724
5.2 8.1 -0.28175
5.2 8.2 -0.30565
5.2 8.3 -0.32871
5.2 8.4 -0.35069
5.2 8.5 -0.37137
5.2 8.6 -0.39054
5.2 8.7 -0.40803
5.2 8.8 -0.42364
5.2 8.9 -0.43722
5.2 9 -0.44865
5.2 9.1 -0.45779
5.2 9.2 -0.46457
5.2 9.3 -0.46892
5.2 9.4 -0.47079
5.2 9.5 -0.47016
5.2 9.6 -0.46704
5.2 9.7 -0.46145
5.2 9.8 -0.45347
5.2 9.9 -0.44316
5.2 10 -0.43063
5.2 10.1 -0.41601
5.2 10.2 -0.39943
5.2 10.3 -0.38107
5.2 10.4 -0.36111
5.2 10.5 -0.33975
5.2 10.6 -0.3172
5.2 10.7 -0.29369
5.2 10.8 -0.26945
5.2 10.9 -0.24472
5.2 11 -0.21976
5.2 11.1 -0.1948
5.2 11.2 -0.17011
5.2 11.3 -0.14593
5.2 11.4 -0.12249
5.2 11.5 -0.10004
5.2 11.6 -0.078791
5.2 11.7 -0.058965
5.2 11.8 -0.040756
5.2 11.9 -0.024346
5.2 12 -0.0099002
5.2 12.1 0.0024379
5.2 12.2 0.012545
5.2 12.3 0.020319
5.2 12.4 0.025684
5.2 12.5 0.028586
5.2 12.6 0.028995
5.2 12.7 0.026908
5.2 12.8 0.022344
5.2 12.9 0.015351
5.2 13 0.005998
5.2 13.1 -0.005622
5.2 13.2 -0.019393
5.2 13.3 -0.035176
5.2 13.4 -0.052815
5.2 13.5 -0.072133
5.2 13.6 -0.092938
5.2 13.7 -0.11502
5.2 13.8 -0.13816
5.2 13.9 -0.16213
5.2 14 -0.18668
5.2 14.1 -0.21157
5.2 14.2 -0.23656
5.2 14.3 -0.26139
5.2 14.4 -0.28582
5.2 14.5 -0.30959
5.2 14.6 -0.33248
5.2 14.7 -0.35426
5.2 14.8 -0.3747
5.2 14.9 -0.39361
5.2 15 -0.41079
5.3 -15 -0.39799
5.3 -14.9 -0.38081
5.3 -14.8 -0.3619
5.3 -14.7 -0.34146
5.3 -14.6 -0.31969
5.3 -14.5 -0.2968
5.3 -14.4 -0.27302
5.3 -14.3 -0.2486
5.3 -14.2 -0.22376
5.3 -14.1 -0.19878
5.3 -14 -0.17388
5.3 -13.9 -0.14933
5.3 -13.8 -0.12536
5.3 -13.7 -0.10222
5.3 -13.6 -0.080141
5.3 -13.5 -0.059337
5.3 -13.4 -0.040019
5.3 -13.3 -0.02238
5.3 -13.2 -0.0065959
5.3 -13.1 0.0071748
5.3 -13 0.018795
5.3 -12.9 0.028148
5.3 -12.8 0.035141
5.3 -12.7 0.039704
5.3 -12.6 0.041792
5.3 -12.5 0.041383
5.3 -12.4 0.038481
5.3 -12.3 0.033116
5.3 -12.2 0.025342
5.3 -12.1 0.015235
5.3 -12 0.0028966
5.3 -11.9 -0.011549
5.3 -11.8 -0.027959
5.3 -11.7 -0.046168
5.3 -11.6 -0.065994
5.3 -11.5 -0.087241
5.3 -11.4 -0.10969
5.3 -11.3 -0.13313
5.3 -11.2 -0.15732
5.3 -11.1 -0.18201
5.3 -11 -0.20696
5.3 -10.9 -0.23192
5.3 -10.8 -0.25665
5.3 -10.7 -0.28089
5.3 -10.6 -0.3044
5.3 -10.5 -0.32695
5.3 -10.4 -0.34831
5.3 -10.3 -0.36827
5.3 -10.2 -0.38663
5.3 -10.1 -0.40321
5.3 -10 -0.41783
5.3 -9.9 -0.43036
5.3 -9.8 -0.44067
5.3 -9.7 -0.44866
5.3 -9.6 -0.45424
5.3 -9.5 -0.45736
5.3 -9.4 -0.45799
5.3 -9.3 -0.45612
5.3 -9.2 -0.45178
5.3 -9.1 -0.445
5.3 -9 -0.43585
5.3 -8.9 -0.42443
5.3 -8.8 -0.41084
5.3 -8.7 -0.39523
5.3 -8.6 -0.37775
5.3 -8.5 -0.35857
5.3 -8.4 -0.33789
5.3 -8.3 -0.31591
5.3 -8.2 -0.29286
5.3 -8.1 -0.26895
5.3 -8 -0.24444
5.3 -7.9 -0.21957
5.3 -7.8 -0.19458
5.3 -7.7 -0.16972
5.3 -7.6 -0.14525
5.3 -7.5 -0.12141
5.3 -7.4 -0.09843
5.3 -7.3 -0.076547
5.3 -7.2 -0.055979
5.3 -7.1 -0.03693
5.3 -7 -0.019591
5.3 -6.9 -0.0041356
5.3 -6.8 0.0092825
5.3 -6.7 0.020529
5.3 -6.6 0.029491
5.3 -6.5 0.03608
5.3 -6.4 0.040229
5.3 -6.3 0.041898
5.3 -6.2 0.041069
5.3 -6.1 0.03775
5.3 -6 0.031976
5.3 -5.9 0.023803
5.3 -5.8 0.013313
5.3 -5.7 0.00061134
5.3 -5.6 -0.014175
5.3 -5.5 -0.030899
5.3 -5.4 -0.049394
5.3 -5.3 -0.069473
5.3 -5.2 -0.090938
5.3 -5.1 -0.11357
5.3 -5 -0.13715
5.3 -4.9 -0.16144
5.3 -4.8 -0.18619
5.3 -4.7 -0.21116
5.3 -4.6 -0.2361
5.3 -4.5 -0.26077
5.3 -4.4 -0.2849
5.3 -4.3 -0.30827
5.3 -4.2 -0.33063
5.3 -4.1 -0.35177
5.3 -4 -0.37148
5.3 -3.9 -0.38955
5.3 -3.8 -0.40581
5.3 -3.7 -0.42009
5.3 -3.6 -0.43226
5.3 -3.5 -0.44218
5.3 -3.4 -0.44977
5.3 -3.3 -0.45494
5.3 -3.2 -0.45764
5.3 -3.1 -0.45785
5.3 -3 -0.45556
5.3 -2.9 -0.45081
5.3 -2.8 -0.44362
5.3 -2.7 -0.43408
5.3 -2.6 -0.42229
5.3 -2.5 -0.40835
5.3 -2.4 -0.39242
5.3 -2.3 -0.37464
5.3 -2.2 -0.35519
5.3 -2.1 -0.33428
5.3 -2 -0.3121
5.3 -1.9 -0.28889
5.3 -1.8 -0.26487
5.3 -1.7 -0.24028
5.3 -1.6 -0.21537
5.3 -1.5 -0.19038
5.3 -1.4 -0.16558
5.3 -1.3 -0.14119
5.3 -1.2 -0.11748
5.3 -1.1 -0.094668
5.3 -1 -0.072991
5.3 -0.9 -0.052664
5.3 -0.8 -0.03389
5.3 -0.7 -0.016856
5.3 -0.6 -0.001733
5.3 -0.5 0.011329
5.3 -0.4 0.022198
5.3 -0.3 0.030767
5.3 -0.2 0.03695
5.3 -0.1 0.040684
5.3 0 0.041933
5.3 0.1 0.040684
5.3 0.2 0.03695
5.3 0.3 0.030767
5.3 0.4 0.022198
5.3 0.5 0.011329
5.3 0.6 -0.001733
5.3 0.7 -0.016856
5.3 0.8 -0.03389
5.3 0.9 -0.052664
5.3 1 -0.072991
5.3 1.1 -0.094668
5.3 1.2 -0.11748
5.3 1.3 -0.14119
5.3 1.4 -0.16558
5.3 1.5 -0.19038
5.3 1.6 -0.21537
5.3 1.7 -0.24028
5.3 1.8 -0.26487
5.3 1.9 -0.28889
5.3 2 -0.3121
5.3 2.1 -0.33428
5.3 2.2 -0.35519
5.3 2.3 -0.37464
5.3 2.4 -0.39242
5.3 2.5 -0.40835
5.3 2.6 -0.42229
5.3 2.7 -0.43408
5.3 2.8 -0.44362
5.3 2.9 -0.45081
5.3 3 -0.45556
5.3 3.1 -0.45785
5.3 3.2 -0.45764
5.3 3.3 -0.45494
5.3 3.4 -0.44977
5.3 3.5 -0.44218
5.3 3.6 -0.43226
5.3 3.7 -0.42009
5.3 3.8 -0.40581
5.3 3.9 -0.38955
5.3 4 -0.37148
5.3 4.1 -0.35177
5.3 4.2 -0.33063
5.3 4.3 -0.30827
5.3 4.4 -0.2849
5.3 4.5 -0.26077
5.3 4.6 -0.2361
5.3 4.7 -0.21116
5.3 4.8 -0.18619
5.3 4.9 -0.16144
5.3 5 -0.13715
5.3 5.1 -0.11357
5.3 5.2 -0.090938
5.3 5.3 -0.069473
5.3 5.4 -0.049394
5.3 5.5 -0.030899
5.3 5.6 -0.014175
5.3 5.7 0.00061134
5.3 5.8 0.013313
5.3 5.9 0.023803
5.3 6 0.031976
5.3 6.1 0.03775
5.3 6.2 0.041069
5.3 6.3 0.041898
5.3 6.4 0.040229
5.3 6.5 0.03608
5.3 6.6 0.029491
5.3 6.7 0.020529
5.3 6.8 0.0092825
5.3 6.9 -0.0041356
5.3 7 -0.019591
5.3 7.1 -0.03693
5.3 7.2 -0.055979
5.3 7.3 -0.076547
5.3 7.4 -0.09843
5.3 7.5 -0.12141
5.3 7.6 -0.14525
5.3 7.7 -0.16972
5.3 7.8 -0.19458
5.3 7.9 -0.21957
5.3 8 -0.24444
5.3 8.1 -0.26895
5.3 8.2 -0.29286
5.3 8.3 -0.31591
5.3 8.4 -0.33789
5.3 8.5 -0.35857
5.3 8.6 -0.37775
5.3 8.7 -0.39523
5.3 8.8 -0.41084
5.3 8.9 -0.42443
5.3 9 -0.43585
5.3 9.1 -0.445
5.3 9.2 -0.45178
5.3 9.3 -0.45612
5.3 9.4 -0.45799
5.3 9.5 -0.45736
5.3 9.6 -0.45424
5.3 9.7 -0.44866
5.3 9.8 -0.44067
5.3 9.9 -0.43036
5.3 10 -0.41783
5.3 10.1 -0.40321
5.3 10.2 -0.38663
5.3 10.3 -0.36827
5.3 10.4 -0.34831
5.3 10.5 -0.32695
5.3 10.6 -0.3044
5.3 10.7 -0.28089
5.3 10.8 -0.25665
5.3 10.9 -0.23192
5.3 11 -0.20696
5.3 11.1 -0.18201
5.3 11.2 -0.15732
5.3 11.3 -0.13313
5.3 11.4 -0.10969
5.3 11.5 -0.087241
5.3 11.6 -0.065994
5.3 11.7 -0.046168
5.3 11.8 -0.027959
5.3 11.9 -0.011549
5.3 12 0.0028966
5.3 12.1 0.015235
5.3 12.2 0.025342
5.3 12.3 0.033116
5.3 12.4 0.038481
5.3 12.5 0.041383
5.3 12.6 0.041792
5.3 12.7 0.039704
5.3 12.8 0.035141
5.3 12.9 0.028148
5.3 13 0.018795
5.3 13.1 0.0071748
5.3 13.2 -0.0065959
5.3 13.3 -0.02238
5.3 13.4 -0.040019
5.3 13.5 -0.059337
5.3 13.6 -0.080141
5.3 13.7 -0.10222
5.3 13.8 -0.12536
5.3 13.9 -0.14933
5.3 14 -0.17388
5.3 14.1 -0.19878
5.3 14.2 -0.22376
5.3 14.3 -0.2486
5.3 14.4 -0.27302
5.3 14.5 -0.2968
5.3 14.6 -0.31969
5.3 14.7 -0.34146
5.3 14.8 -0.3619
5.3 14.9 -0.38081
5.3 15 -0.39799
5.4 -15 -0.38311
5.4 -14.9 -0.36593
5.4 -14.8 -0.34703
5.4 -14.7 -0.32659
5.4 -14.6 -0.30481
5.4 -14.5 -0.28192
5.4 -14.4 -0.25815
5.4 -14.3 -0.23372
5.4 -14.2 -0.20889
5.4 -14.1 -0.1839
5.4 -14 -0.15901
5.4 -13.9 -0.13445
5.4 -13.8 -0.11049
5.4 -13.7 -0.087347
5.4 -13.6 -0.065265
5.4 -13.5 -0.044461
5.4 -13.4 -0.025143
5.4 -13.3 -0.0075038
5.4 -13.2 0.0082799
5.4 -13.1 0.022051
5.4 -13 0.033671
5.4 -12.9 0.043024
5.4 -12.8 0.050017
5.4 -12.7 0.05458
5.4 -12.6 0.056668
5.4 -12.5 0.056258
5.4 -12.4 0.053357
5.4 -12.3 0.047992
5.4 -12.2 0.040217
5.4 -12.1 0.03011
5.4 -12 0.017772
5.4 -11.9 0.0033265
5.4 -11.8 -0.013083
5.4 -11.7 -0.031292
5.4 -11.6 -0.051119
5.4 -11.5 -0.072365
5.4 -11.4 -0.094818
5.4 -11.3 -0.11825
5.4 -11.2 -0.14244
5.4 -11.1 -0.16713
5.4 -11 -0.19208
5.4 -10.9 -0.21705
5.4 -10.8 -0.24177
5.4 -10.7 -0.26601
5.4 -10.6 -0.28953
5.4 -10.5 -0.31208
5.4 -10.4 -0.33344
5.4 -10.3 -0.3534
5.4 -10.2 -0.37176
5.4 -10.1 -0.38833
5.4 -10 -0.40296
5.4 -9.9 -0.41549
5.4 -9.8 -0.4258
5.4 -9.7 -0.43378
5.4 -9.6 -0.43936
5.4 -9.5 -0.44248
5.4 -9.4 -0.44311
5.4 -9.3 -0.44125
5.4 -9.2 -0.4369
5.4 -9.1 -0.43012
5.4 -9 -0.42097
5.4 -8.9 -0.40955
5.4 -8.8 -0.39596
5.4 -8.7 -0.38035
5.4 -8.6 -0.36287
5.4 -8.5 -0.34369
5.4 -8.4 -0.32301
5.4 -8.3 -0.30104
5.4 -8.2 -0.27798
5.4 -8.1 -0.25408
5.4 -8 -0.22957
5.4 -7.9 -0.20469
5.4 -7.8 -0.1797
5.4 -7.7 -0.15485
5.4 -7.6 -0.13038
5.4 -7.5 -0.10653
5.4 -7.4 -0.083554
5.4 -7.3 -0.061672
5.4 -7.2 -0.041103
5.4 -7.1 -0.022054
5.4 -7 -0.0047156
5.4 -6.9 0.01074
5.4 -6.8 0.024158
5.4 -6.7 0.035405
5.4 -6.6 0.044367
5.4 -6.5 0.050956
5.4 -6.4 0.055105
5.4 -6.3 0.056774
5.4 -6.2 0.055944
5.4 -6.1 0.052626
5.4 -6 0.046851
5.4 -5.9 0.038678
5.4 -5.8 0.028189
5.4 -5.7 0.015487
5.4 -5.6 0.00070035
5.4 -5.5 -0.016024
5.4 -5.4 -0.034518
5.4 -5.3 -0.054598
5.4 -5.2 -0.076062
5.4 -5.1 -0.098697
5.4 -5 -0.12228
5.4 -4.9 -0.14656
5.4 -4.8 -0.17132
5.4 -4.7 -0.19629
5.4 -4.6 -0.22123
5.4 -4.5 -0.24589
5.4 -4.4 -0.27002
5.4 -4.3 -0.29339
5.4 -4.2 -0.31576
5.4 -4.1 -0.3369
5.4 -4 -0.3566
5.4 -3.9 -0.37467
5.4 -3.8 -0.39093
5.4 -3.7 -0.40522
5.4 -3.6 -0.41738
5.4 -3.5 -0.42731
5.4 -3.4 -0.43489
5.4 -3.3 -0.44006
5.4 -3.2 -0.44276
5.4 -3.1 -0.44297
5.4 -3 -0.44069
5.4 -2.9 -0.43593
5.4 -2.8 -0.42875
5.4 -2.7 -0.41921
5.4 -2.6 -0.40741
5.4 -2.5 -0.39348
5.4 -2.4 -0.37754
5.4 -2.3 -0.35976
5.4 -2.2 -0.34032
5.4 -2.1 -0.3194
5.4 -2 -0.29723
5.4 -1.9 -0.27401
5.4 -1.8 -0.24999
5.4 -1.7 -0.2254
5.4 -1.6 -0.20049
5.4 -1.5 -0.17551
5.4 -1.4 -0.1507
5.4 -1.3 -0.12632
5.4 -1.2 -0.1026
5.4 -1.1 -0.079792
5.4 -1 -0.058116
5.4 -0.9 -0.037789
5.4 -0.8 -0.019014
5.4 -0.7 -0.0019806
5.4 -0.6 0.013143
5.4 -0.5 0.026205
5.4 -0.4 0.037074
5.4 -0.3 0.045643
5.4 -0.2 0.051826
5.4 -0.1 0.05556
5.4 0 0.056809
5.4 0.1 0.05556
5.4 0.2 0.051826
5.4 0.3 0.045643
5.4 0.4 0.037074
5.4 0.5 0.026205
5.4 0.6 0.013143
5.4 0.7 -0.0019806
5.4 0.8 -0.019014
5.4 0.9 -0.037789
5.4 1 -0.058116
5.4 1.1 -0.079792
5.4 1.2 -0.1026
5.4 1.3 -0.12632
5.4 1.4 -0.1507
5.4 1.5 -0.17551
5.4 1.6 -0.20049
5.4 1.7 -0.2254
5.4 1.8 -0.24999
5.4 1.9 -0.27401
5.4 2 -0.29723
5.4 2.1 -0.3194
5.4 2.2 -0.34032
5.4 2.3 -0.35976
5.4 2.4 -0.37754
5.4 2.5 -0.39348
5.4 2.6 -0.40741
5.4 2.7 -0.41921
5.4 2.8 -0.42875
5.4 2.9 -0.43593
5.4 3 -0.44069
5.4 3.1 -0.44297
5.4 3.2 -0.44276
5.4 3.3 -0.44006
5.4 3.4 -0.43489
5.4 3.5 -0.42731
5.4 3.6 -0.41738
5.4 3.7 -0.40522
5.4 3.8 -0.39093
5.4 3.9 -0.37467
5.4 4 -0.3566
5.4 4.1 -0.3369
5.4 4.2 -0.31576
5.4 4.3 -0.29339
5.4 4.4 -0.27002
5.4 4.5 -0.24589
5.4 4.6 -0.22123
5.4 4.7 -0.19629
5.4 4.8 -0.17132
5.4 4.9 -0.14656
5.4 5 -0.12228
5.4 5.1 -0.098697
5.4 5.2 -0.076062
5.4 5.3 -0.054598
5.4 5.4 -0.034518
5.4 5.5 -0.016024
5.4 5.6 0.00070035
5.4 5.7 0.015487
5.4 5.8 0.028189
5.4 5.9 0.038678
5.4 6 0.046851
5.4 6.1 0.052626
5.4 6.2 0.055944
5.4 6.3 0.056774
5.4 6.4 0.055105
5.4 6.5 0.050956
5.4 6.6 0.044367
5.4 6.7 0.035405
5.4 6.8 0.024158
5.4 6.9 0.01074
5.4 7 -0.0047156
5.4 7.1 -0.022054
5.4 7.2 -0.041103
5.4 7.3 -0.061672
5.4 7.4 -0.083554
5.4 7.5 -0.10653
5.4 7.6 -0.13038
5.4 7.7 -0.15485
5.4 7.8 -0.1797
5.4 7.9 -0.20469
5.4 8 -0.22957
5.4 8.1 -0.25408
5.4 8.2 -0.27798
5.4 8.3 -0.30104
5.4 8.4 -0.32301
5.4 8.5 -0.34369
5.4 8.6 -0.36287
5.4 8.7 -0.38035
5.4 8.8 -0.39596
5.4 8.9 -0.40955
5.4 9 -0.42097
5.4 9.1 -0.43012
5.4 9.2 -0.4369
5.4 9.3 -0.44125
5.4 9.4 -0.44311
5.4 9.5 -0.44248
5.4 9.6 -0.43936
5.4 9.7 -0.43378
5.4 9.8 -0.4258
5.4 9.9 -0.41549
5.4 10 -0.40296
5.4 10.1 -0.38833
5.4 10.2 -0.37176
5.4 10.3 -0.3534
5.4 10.4 -0.33344
5.4 10.5 -0.31208
5.4 10.6 -0.28953
5.4 10.7 -0.26601
5.4 10.8 -0.24177
5.4 10.9 -0.21705
5.4 11 -0.19208
5.4 11.1 -0.16713
5.4 11.2 -0.14244
5.4 11.3 -0.11825
5.4 11.4 -0.094818
5.4 11.5 -0.072365
5.4 11.6 -0.051119
5.4 11.7 -0.031292
5.4 11.8 -0.013083
5.4 11.9 0.0033265
5.4 12 0.017772
5.4 12.1 0.03011
5.4 12.2 0.040217
5.4 12.3 0.047992
5.4 12.4 0.053357
5.4 12.5 0.056258
5.4 12.6 0.056668
5.4 12.7 0.05458
5.4 12.8 0.050017
5.4 12.9 0.043024
5.4 13 0.033671
5.4 13.1 0.022051
5.4 13.2 0.0082799
5.4 13.3 -0.0075038
5.4 13.4 -0.025143
5.4 13.5 -0.044461
5.4 13.6 -0.065265
5.4 13.7 -0.087347
5.4 13.8 -0.11049
5.4 13.9 -0.13445
5.4 14 -0.15901
5.4 14.1 -0.1839
5.4 14.2 -0.20889
5.4 14.3 -0.23372
5.4 14.4 -0.25815
5.4 14.5 -0.28192
5.4 14.6 -0.30481
5.4 14.7 -0.32659
5.4 14.8 -0.34703
5.4 14.9 -0.36593
5.4 15 -0.38311
5.5 -15 -0.36631
5.5 -14.9 -0.34913
5.5 -14.8 -0.33022
5.5 -14.7 -0.30978
5.5 -14.6 -0.28801
5.5 -14.5 -0.26512
5.5 -14.4 -0.24134
5.5 -14.3 -0.21691
5.5 -14.2 -0.19208
5.5 -14.1 -0.1671
5.5 -14 -0.1422
5.5 -13.9 -0.11765
5.5 -13.8 -0.093681
5.5 -13.7 -0.070541
5.5 -13.6 -0.048459
5.5 -13.5 -0.027655
5.5 -13.4 -0.0083368
5.5 -13.3 0.0093022
5.5 -13.2 0.025086
5.5 -13.1 0.038857
5.5 -13 0.050477
5.5 -12.9 0.05983
5.5 -12.8 0.066823
5.5 -12.7 0.071386
5.5 -12.6 0.073474
5.5 -12.5 0.073064
5.5 -12.4 0.070163
5.5 -12.3 0.064798
5.5 -12.2 0.057023
5.5 -12.1 0.046916
5.5 -12 0.034578
5.5 -11.9 0.020132
5.5 -11.8 0.003723
5.5 -11.7 -0.014486
5.5 -11.6 -0.034313
5.5 -11.5 -0.055559
5.5 -11.4 -0.078012
5.5 -11.3 -0.10145
5.5 -11.2 -0.12563
5.5 -11.1 -0.15033
5.5 -11 -0.17528
5.5 -10.9 -0.20024
5.5 -10.8 -0.22497
5.5 -10.7 -0.24921
5.5 -10.6 -0.27272
5.5 -10.5 -0.29527
5.5 -10.4 -0.31663
5.5 -10.3 -0.33659
5.5 -10.2 -0.35495
5.5 -10.1 -0.37153
5.5 -10 -0.38615
5.5 -9.9 -0.39868
5.5 -9.8 -0.40899
5.5 -9.7 -0.41698
5.5 -9.6 -0.42256
5.5 -9.5 -0.42568
5.5 -9.4 -0.42631
5.5 -9.3 -0.42444
5.5 -9.2 -0.4201
5.5 -9.1 -0.41332
5.5 -9 -0.40417
5.5 -8.9 -0.39274
5.5 -8.8 -0.37916
5.5 -8.7 -0.36355
5.5 -8.6 -0.34607
5.5 -8.5 -0.32689
5.5 -8.4 -0.30621
5.5 -8.3 -0.28423
5.5 -8.2 -0.26117
5.5 -8.1 -0.23727
5.5 -8 -0.21276
5.5 -7.9 -0.18789
5.5 -7.8 -0.1629
5.5 -7.7 -0.13804
5.5 -7.6 -0.11357
5.5 -7.5 -0.089726
5.5 -7.4 -0.066748
5.5 -7.3 -0.044866
5.5 -7.2 -0.024297
5.5 -7.1 -0.0052484
5.5 -7 0.01209
5.5 -6.9 0.027546
5.5 -6.8 0.040964
5.5 -6.7 0.052211
5.5 -6.6 0.061173
5.5 -6.5 0.067762
5.5 -6.4 0.071911
5.5 -6.3 0.07358
5.5 -6.2 0.07275
5.5 -6.1 0.069432
5.5 -6 0.063657
5.5 -5.9 0.055485
5.5 -5.8 0.044995
5.5 -5.7 0.032293
5.5 -5.6 0.017506
5.5 -5.5 0.00078236
5.5 -5.4 -0.017712
5.5 -5.3 -0.037791
5.5 -5.2 -0.059256
5.5 -5.1 -0.081891
5.5 -5 -0.10547
5.5 -4.9 -0.12976
5.5 -4.8 -0.15451
5.5 -4.7 -0.17948
5.5 -4.6 -0.20442
5.5 -4.5 -0.22908
5.5 -4.4 -0.25322
5.5 -4.3 -0.27658
5.5 -4.2 -0.29895
5.5 -4.1 -0.32009
5.5 -4 -0.3398
5.5 -3.9 -0.35787
5.5 -3.8 -0.37413
5.5 -3.7 -0.38841
5.5 -3.6 -0.40057
5.5 -3.5 -0.4105
5.5 -3.4 -0.41808
5.5 -3.3 -0.42326
5.5 -3.2 -0.42596
5.5 -3.1 -0.42617
5.5 -3 -0.42388
5.5 -2.9 -0.41912
5.5 -2.8 -0.41194
5.5 -2.7 -0.4024
5.5 -2.6 -0.39061
5.5 -2.5 -0.37667
5.5 -2.4 -0.36073
5.5 -2.3 -0.34295
5.5 -2.2 -0.32351
5.5 -2.1 -0.3026
5.5 -2 -0.28042
5.5 -1.9 -0.25721
5.5 -1.8 -0.23319
5.5 -1.7 -0.2086
5.5 -1.6 -0.18368
5.5 -1.5 -0.1587
5.5 -1.4 -0.13389
5.5 -1.3 -0.10951
5.5 -1.2 -0.085796
5.5 -1.1 -0.062986
5.5 -1 -0.04131
5.5 -0.9 -0.020983
5.5 -0.8 -0.0022084
5.5 -0.7 0.014825
5.5 -0.6 0.029949
5.5 -0.5 0.043011
5.5 -0.4 0.05388
5.5 -0.3 0.062449
5.5 -0.2 0.068632
5.5 -0.1 0.072366
5.5 0 0.073615
5.5 0.1 0.072366
5.5 0.2 0.068632
5.5 0.3 0.062449
5.5 0.4 0.05388
5.5 0.5 0.043011
5.5 0.6 0.029949
5.5 0.7 0.014825
5.5 0.8 -0.0022084
5.5 0.9 -0.020983
5.5 1 -0.04131
5.5 1.1 -0.062986
5.5 1.2 -0.085796
5.5 1.3 -0.10951
5.5 1.4 -0.13389
5.5 1.5 -0.1587
5.5 1.6 -0.18368
5.5 1.7 -0.2086
5.5 1.8 -0.23319
5.5 1.9 -0.25721
5.5 2 -0.28042
5.5 2.1 -0.3026
5.5 2.2 -0.32351
5.5 2.3 -0.34295
5.5 2.4 -0.36073
5.5 2.5 -0.37667
5.5 2.6 -0.39061
5.5 2.7 -0.4024
5.5 2.8 -0.41194
5.5 2.9 -0.41912
5.5 3 -0.42388
5.5 3.1 -0.42617
5.5 3.2 -0.42596
5.5 3.3 -0.42326
5.5 3.4 -0.41808
5.5 3.5 -0.4105
5.5 3.6 -0.40057
5.5 3.7 -0.38841
5.5 3.8 -0.37413
5.5 3.9 -0.35787
5.5 4 -0.3398
5.5 4.1 -0.32009
5.5 4.2 -0.29895
5.5 4.3 -0.27658
5.5 4.4 -0.25322
5.5 4.5 -0.22908
5.5 4.6 -0.20442
5.5 4.7 -0.17948
5.5 4.8 -0.15451
5.5 4.9 -0.12976
5.5 5 -0.10547
5.5 5.1 -0.081891
5.5 5.2 -0.059256
5.5 5.3 -0.037791
5.5 5.4 -0.017712
5.5 5.5 0.00078236
5.5 5.6 0.017506
5.5 5.7 0.032293
5.5 5.8 0.044995
5.5 5.9 0.055485
5.5 6 0.063657
5.5 6.1 0.069432
5.5 6.2 0.07275
5.5 6.3 0.07358
5.5 6.4 0.071911
5.5 6.5 0.067762
5.5 6.6 0.061173
5.5 6.7 0.052211
5.5 6.8 0.040964
5.5 6.9 0.027546
5.5 7 0.01209
5.5 7.1 -0.0052484
5.5 7.2 -0.024297
5.5 7.3 -0.044866
5.5 7.4 -0.066748
5.5 7.5 -0.089726
5.5 7.6 -0.11357
5.5 7.7 -0.13804
5.5 7.8 -0.1629
5.5 7.9 -0.18789
5.5 8 -0.21276
5.5 8.1 -0.23727
5.5 8.2 -0.26117
5.5 8.3 -0.28423
5.5 8.4 -0.30621
5.5 8.5 -0.32689
5.5 8.6 -0.34607
5.5 8.7 -0.36355
5.5 8.8 -0.37916
5.5 8.9 -0.39274
5.5 9 -0.40417
5.5 9.1 -0.41332
5.5 9.2 -0.4201
5.5 9.3 -0.42444
5.5 9.4 -0.42631
5.5 9.5 -0.42568
5.5 9.6 -0.42256
5.5 9.7 -0.41698
5.5 9.8 -0.40899
5.5 9.9 -0.39868
5.5 10 -0.38615
5.5 10.1 -0.37153
5.5 10.2 -0.35495
5.5 10.3 -0.33659
5.5 10.4 -0.31663
5.5 10.5 -0.29527
5.5 10.6 -0.27272
5.5 10.7 -0.24921
5.5 10.8 -0.22497
5.5 10.9 -0.20024
5.5 11 -0.17528
5.5 11.1 -0.15033
5.5 11.2 -0.12563
5.5 11.3 -0.10145
5.5 11.4 -0.078012
5.5 11.5 -0.055559
5.5 11.6 -0.034313
5.5 11.7 -0.014486
5.5 11.8 0.003723
5.5 11.9 0.020132
5.5 12 0.034578
5.5 12.1 0.046916
5.5 12.2 0.057023
5.5 12.3 0.064798
5.5 12.4 0.070163
5.5 12.5 0.073064
5.5 12.6 0.073474
5.5 12.7 0.071386
5.5 12.8 0.066823
5.5 12.9 0.05983
5.5 13 0.050477
5.5 13.1 0.038857
5.5 13.2 0.025086
5.5 13.3 0.0093022
5.5 13.4 -0.0083368
5.5 13.5 -0.027655
5.5 13.6 -0.048459
5.5 13.7 -0.070541
5.5 13.8 -0.093681
5.5 13.9 -0.11765
5.5 14 -0.1422
5.5 14.1 -0.1671
5.5 14.2 -0.19208
5.5 14.3 -0.21691
5.5 14.4 -0.24134
5.5 14.5 -0.26512
5.5 14.6 -0.28801
5.5 14.7 -0.30978
5.5 14.8 -0.33022
5.5 14.9 -0.34913
5.5 15 -0.36631
5.6 -15 -0.34774
5.6 -14.9 -0.33056
5.6 -14.8 -0.31165
5.6 -14.7 -0.29121
5.6 -14.6 -0.26944
5.6 -14.5 -0.24655
5.6 -14.4 -0.22277
5.6 -14.3 -0.19835
5.6 -14.2 -0.17351
5.6 -14.1 -0.14853
5.6 -14 -0.12363
5.6 -13.9 -0.099079
5.6 -13.8 -0.075113
5.6 -13.7 -0.051973
5.6 -13.6 -0.029891
5.6 -13.5 -0.0090865
5.6 -13.4 0.010232
5.6 -13.3 0.027871
5.6 -13.2 0.043654
5.6 -13.1 0.057425
5.6 -13 0.069045
5.6 -12.9 0.078398
5.6 -12.8 0.085391
5.6 -12.7 0.089955
5.6 -12.6 0.092042
5.6 -12.5 0.091633
5.6 -12.4 0.088731
5.6 -12.3 0.083366
5.6 -12.2 0.075592
5.6 -12.1 0.065485
5.6 -12 0.053147
5.6 -11.9 0.038701
5.6 -11.8 0.022291
5.6 -11.7 0.0040824
5.6 -11.6 -0.015744
5.6 -11.5 -0.03699
5.6 -11.4 -0.059444
5.6 -11.3 -0.08288
5.6 -11.2 -0.10707
5.6 -11.1 -0.13176
5.6 -11 -0.15671
5.6 -10.9 -0.18167
5.6 -10.8 -0.2064
5.6 -10.7 -0.23064
5.6 -10.6 -0.25415
5.6 -10.5 -0.2767
5.6 -10.4 -0.29806
5.6 -10.3 -0.31802
5.6 -10.2 -0.33638
5.6 -10.1 -0.35296
5.6 -10 -0.36758
5.6 -9.9 -0.38011
5.6 -9.8 -0.39042
5.6 -9.7 -0.39841
5.6 -9.6 -0.40399
5.6 -9.5 -0.40711
5.6 -9.4 -0.40774
5.6 -9.3 -0.40587
5.6 -9.2 -0.40153
5.6 -9.1 -0.39475
5.6 -9 -0.3856
5.6 -8.9 -0.37418
5.6 -8.8 -0.36059
5.6 -8.7 -0.34498
5.6 -8.6 -0.3275
5.6 -8.5 -0.30832
5.6 -8.4 -0.28764
5.6 -8.3 -0.26566
5.6 -8.2 -0.24261
5.6 -8.1 -0.2187
5.6 -8 -0.19419
5.6 -7.9 -0.16932
5.6 -7.8 -0.14433
5.6 -7.7 -0.11947
5.6 -7.6 -0.095002
5.6 -7.5 -0.071158
5.6 -7.4 -0.04818
5.6 -7.3 -0.026297
5.6 -7.2 -0.0057288
5.6 -7.1 0.01332
5.6 -7 0.030659
5.6 -6.9 0.046115
5.6 -6.8 0.059533
5.6 -6.7 0.070779
5.6 -6.6 0.079741
5.6 -6.5 0.08633
5.6 -6.4 0.09048
5.6 -6.3 0.092148
5.6 -6.2 0.091319
5.6 -6.1 0.088
5.6 -6 0.082226
5.6 -5.9 0.074053
5.6 -5.8 0.063563
5.6 -5.7 0.050862
5.6 -5.6 0.036075
5.6 -5.5 0.019351
5.6 -5.4 0.00085656
5.6 -5.3 -0.019223
5.6 -5.2 -0.040687
5.6 -5.1 -0.063322
5.6 -5 -0.086901
5.6 -4.9 -0.11119
5.6 -4.8 -0.13594
5.6 -4.7 -0.16091
5.6 -4.6 -0.18585
5.6 -4.5 -0.21052
5.6 -4.4 -0.23465
5.6 -4.3 -0.25802
5.6 -4.2 -0.28038
5.6 -4.1 -0.30152
5.6 -4 -0.32123
5.6 -3.9 -0.3393
5.6 -3.8 -0.35556
5.6 -3.7 -0.36984
5.6 -3.6 -0.38201
5.6 -3.5 -0.39193
5.6 -3.4 -0.39952
5.6 -3.3 -0.40469
5.6 -3.2 -0.40739
5.6 -3.1 -0.4076
5.6 -3 -0.40531
5.6 -2.9 -0.40056
5.6 -2.8 -0.39337
5.6 -2.7 -0.38383
5.6 -2.6 -0.37204
5.6 -2.5 -0.3581
5.6 -2.4 -0.34217
5.6 -2.3 -0.32439
5.6 -2.2 -0.30494
5.6 -2.1 -0.28403
5.6 -2 -0.26185
5.6 -1.9 -0.23864
5.6 -1.8 -0.21462
5.6 -1.7 -0.19003
5.6 -1.6 -0.16512
5.6 -1.5 -0.14013
5.6 -1.4 -0.11532
5.6 -1.3 -0.090942
5.6 -1.2 -0.067227
5.6 -1.1 -0.044418
5.6 -1 -0.022741
5.6 -0.9 -0.0024142
5.6 -0.8 0.01636
5.6 -0.7 0.033394
5.6 -0.6 0.048517
5.6 -0.5 0.061579
5.6 -0.4 0.072449
5.6 -0.3 0.081017
5.6 -0.2 0.0872
5.6 -0.1 0.090934
5.6 0 0.092183
5.6 0.1 0.090934
5.6 0.2 0.0872
5.6 0.3 0.081017
5.6 0.4 0.072449
5.6 0.5 0.061579
5.6 0.6 0.048517
5.6 0.7 0.033394
5.6 0.8 0.01636
5.6 0.9 -0.0024142
5.6 1 -0.022741
5.6 1.1 -0.044418
5.6 1.2 -0.067227
5.6 1.3 -0.090942
5.6 1.4 -0.11532
5.6 1.5 -0.14013
5.6 1.6 -0.16512
5.6 1.7 -0.19003
5.6 1.8 -0.21462
5.6 1.9 -0.23864
5.6 2 -0.26185
5.6 2.1 -0.28403
5.6 2.2 -0.30494
5.6 2.3 -0.32439
5.6 2.4 -0.34217
5.6 2.5 -0.3581
5.6 2.6 -0.37204
5.6 2.7 -0.38383
5.6 2.8 -0.39337
5.6 2.9 -0.40056
5.6 3 -0.40531
5.6 3.1 -0.4076
5.6 3.2 -0.40739
5.6 3.3 -0.40469
5.6 3.4 -0.39952
5.6 3.5 -0.39193
5.6 3.6 -0.38201
5.6 3.7 -0.36984
5.6 3.8 -0.35556
5.6 3.9 -0.3393
5.6 4 -0.32123
5.6 4.1 -0.30152
5.6 4.2 -0.28038
5.6 4.3 -0.25802
5.6 4.4 -0.23465
5.6 4.5 -0.21052
5.6 4.6 -0.18585
5.6 4.7 -0.16091
5.6 4.8 -0.13594
5.6 4.9 -0.11119
5.6 5 -0.086901
5.6 5.1 -0.063322
5.6 5.2 -0.040687
5.6 5.3 -0.019223
5.6 5.4 0.00085656
5.6 5.5 0.019351
5.6 5.6 0.036075
5.6 5.7 0.050862
5.6 5.8 0.063563
5.6 5.9 0.074053
5.6 6 0.082226
5.6 6.1 0.088
5.6 6.2 0.091319
5.6 6.3 0.092148
5.6 6.4 0.09048
5.6 6.5 0.08633
5.6 6.6 0.079741
5.6 6.7 0.070779
5.6 6.8 0.059533
5.6 6.9 0.046115
5.6 7 0.030659
5.6 7.1 0.01332
5.6 7.2 -0.0057288
5.6 7.3 -0.026297
5.6 7.4 -0.04818
5.6 7.5 -0.071158
5.6 7.6 -0.095002
5.6 7.7 -0.11947
5.6 7.8 -0.14433
5.6 7.9 -0.16932
5.6 8 -0.19419
5.6 8.1 -0.2187
5.6 8.2 -0.24261
5.6 8.3 -0.26566
5.6 8.4 -0.28764
5.6 8.5 -0.30832
5.6 8.6 -0.3275
5.6 8.7 -0.34498
5.6 8.8 -0.36059
5.6 8.9 -0.37418
5.6 9 -0.3856
5.6 9.1 -0.39475
5.6 9.2 -0.40153
5.6 9.3 -0.40587
5.6 9.4 -0.40774
5.6 9.5 -0.40711
5.6 9.6 -0.40399
5.6 9.7 -0.39841
5.6 9.8 -0.39042
5.6 9.9 -0.38011
5.6 10 -0.36758
5.6 10.1 -0.35296
5.6 10.2 -0.33638
5.6 10.3 -0.31802
5.6 10.4 -0.29806
5.6 10.5 -0.2767
5.6 10.6 -0.25415
5.6 10.7 -0.23064
5.6 10.8 -0.2064
5.6 10.9 -0.18167
5.6 11 -0.15671
5.6 11.1 -0.13176
5.6 11.2 -0.10707
5.6 11.3 -0.08288
5.6 11.4 -0.059444
5.6 11.5 -0.03699
5.6 11.6 -0.015744
5.6 11.7 0.0040824
5.6 11.8 0.022291
5.6 11.9 0.038701
5.6 12 0.053147
5.6 12.1 0.065485
5.6 12.2 0.075592
5.6 12.3 0.083366
5.6 12.4 0.088731
5.6 12.5 0.091633
5.6 12.6 0.092042
5.6 12.7 0.089955
5.6 12.8 0.085391
5.6 12.9 0.078398
5.6 13 0.069045
5.6 13.1 0.057425
5.6 13.2 0.043654
5.6 13.3 0.027871
5.6 13.4 0.010232
5.6 13.5 -0.0090865
5.6 13.6 -0.029891
5.6 13.7 -0.051973
5.6 13.8 -0.075113
5.6 13.9 -0.099079
5.6 14 -0.12363
5.6 14.1 -0.14853
5.6 14.2 -0.17351
5.6 14.3 -0.19835
5.6 14.4 -0.22277
5.6 14.5 -0.24655
5.6 14.6 -0.26944
5.6 14.7 -0.29121
5.6 14.8 -0.31165
5.6 14.9 -0.33056
5.6 15 -0.34774
5.7 -15 -0.32759
5.7 -14.9 -0.31041
5.7 -14.8 -0.29151
5.7 -14.7 -0.27107
5.7 -14.6 -0.24929
5.7 -14.5 -0.2264
5.7 -14.4 -0.20263
5.7 -14.3 -0.1782
5.7 -14.2 -0.15337
5.7 -14.1 -0.12838
5.7 -14 -0.10349
5.7 -13.9 -0.078934
5.7 -13.8 -0.054968
5.7 -13.7 -0.031828
5.7 -13.6 -0.0097454
5.7 -13.5 0.011059
5.7 -13.4 0.030377
5.7 -13.3 0.048016
5.7 -13.2 0.0638
5.7 -13.1 0.07757
5.7 -13 0.08919
5.7 -12.9 0.098544
5.7 -12.8 0.10554
5.7 -12.7 0.1101
5.7 -12.6 0.11219
5.7 -12.5 0.11178
5.7 -12.4 0.10888
5.7 -12.3 0.10351
5.7 -12.2 0.095737
5.7 -12.1 0.08563
5.7 -12 0.073292
5.7 -11.9 0.058846
5.7 -11.8 0.042437
5.7 -11.7 0.024228
5.7 -11.6 0.004401
5.7 -11.5 -0.016845
5.7 -11.4 -0.039299
5.7 -11.3 -0.062735
5.7 -11.2 -0.08692
5.7 -11.1 -0.11161
5.7 -11 -0.13656
5.7 -10.9 -0.16153
5.7 -10.8 -0.18625
5.7 -10.7 -0.21049
5.7 -10.6 -0.23401
5.7 -10.5 -0.25656
5.7 -10.4 -0.27792
5.7 -10.3 -0.29788
5.7 -10.2 -0.31624
5.7 -10.1 -0.33281
5.7 -10 -0.34744
5.7 -9.9 -0.35997
5.7 -9.8 -0.37028
5.7 -9.7 -0.37826
5.7 -9.6 -0.38384
5.7 -9.5 -0.38696
5.7 -9.4 -0.38759
5.7 -9.3 -0.38573
5.7 -9.2 -0.38138
5.7 -9.1 -0.3746
5.7 -9 -0.36545
5.7 -8.9 -0.35403
5.7 -8.8 -0.34044
5.7 -8.7 -0.32483
5.7 -8.6 -0.30735
5.7 -8.5 -0.28817
5.7 -8.4 -0.26749
5.7 -8.3 -0.24552
5.7 -8.2 -0.22246
5.7 -8.1 -0.19856
5.7 -8 -0.17405
5.7 -7.9 -0.14917
5.7 -7.8 -0.12418
5.7 -7.7 -0.099328
5.7 -7.6 -0.074856
5.7 -7.5 -0.051013
5.7 -7.4 -0.028035
5.7 -7.3 -0.006152
5.7 -7.2 0.014416
5.7 -7.1 0.033465
5.7 -7 0.050804
5.7 -6.9 0.06626
5.7 -6.8 0.079678
5.7 -6.7 0.090924
5.7 -6.6 0.099887
5.7 -6.5 0.10648
5.7 -6.4 0.11062
5.7 -6.3 0.11229
5.7 -6.2 0.11146
5.7 -6.1 0.10815
5.7 -6 0.10237
5.7 -5.9 0.094198
5.7 -5.8 0.083708
5.7 -5.7 0.071007
5.7 -5.6 0.05622
5.7 -5.5 0.039496
5.7 -5.4 0.021002
5.7 -5.3 0.0009222
5.7 -5.2 -0.020542
5.7 -5.1 -0.043177
5.7 -5 -0.066756
5.7 -4.9 -0.091043
5.7 -4.8 -0.1158
5.7 -4.7 -0.14077
5.7 -4.6 -0.16571
5.7 -4.5 -0.19037
5.7 -4.4 -0.2145
5.7 -4.3 -0.23787
5.7 -4.2 -0.26024
5.7 -4.1 -0.28138
5.7 -4 -0.30108
5.7 -3.9 -0.31915
5.7 -3.8 -0.33541
5.7 -3.7 -0.3497
5.7 -3.6 -0.36186
5.7 -3.5 -0.37179
5.7 -3.4 -0.37937
5.7 -3.3 -0.38454
5.7 -3.2 -0.38725
5.7 -3.1 -0.38746
5.7 -3 -0.38517
5.7 -2.9 -0.38041
5.7 -2.8 -0.37323
5.7 -2.7 -0.36369
5.7 -2.6 -0.35189
5.7 -2.5 -0.33796
5.7 -2.4 -0.32202
5.7 -2.3 -0.30424
5.7 -2.2 -0.2848
5.7 -2.1 -0.26388
5.7 -2 -0.24171
5.7 -1.9 -0.21849
5.7 -1.8 -0.19447
5.7 -1.7 -0.16988
5.7 -1.6 -0.14497
5.7 -1.5 -0.11999
5.7 -1.4 -0.09518
5.7 -1.3 -0.070797
5.7 -1.2 -0.047082
5.7 -1.1 -0.024272
5.7 -1 -0.0025958
5.7 -0.9 0.017731
5.7 -0.8 0.036505
5.7 -0.7 0.053539
5.7 -0.6 0.068663
5.7 -0.5 0.081724
5.7 -0.4 0.092594
5.7 -0.3 0.10116
5.7 -0.2 0.10735
5.7 -0.1 0.11108
5.7 0 0.11233
5.7 0.1 0.11108
5.7 0.2 0.10735
5.7 0.3 0.10116
5.7 0.4 0.092594
5.7 0.5 0.081724
5.7 0.6 0.068663
5.7 0.7 0.053539
5.7 0.8 0.036505
5.7 0.9 0.017731
5.7 1 -0.0025958
5.7 1.1 -0.024272
5.7 1.2 -0.047082
5.7 1.3 -0.070797
5.7 1.4 -0.09518
5.7 1.5 -0.11999
5.7 1.6 -0.14497
5.7 1.7 -0.16988
5.7 1.8 -0.19447
5.7 1.9 -0.21849
5.7 2 -0.24171
5.7 2.1 -0.26388
5.7 2.2 -0.2848
5.7 2.3 -0.30424
5.7 2.4 -0.32202
5.7 2.5 -0.33796
5.7 2.6 -0.35189
5.7 2.7 -0.36369
5.7 2.8 -0.37323
5.7 2.9 -0.38041
5.7 3 -0.38517
5.7 3.1 -0.38746
5.7 3.2 -0.38725
5.7 3.3 -0.38454
5.7 3.4 -0.37937
5.7 3.5 -0.37179
5.7 3.6 -0.36186
5.7 3.7 -0.3497
5.7 3.8 -0.33541
5.7 3.9 -0.31915
5.7 4 -0.30108
5.7 4.1 -0.28138
5.7 4.2 -0.26024
5.7 4.3 -0.23787
5.7 4.4 -0.2145
5.7 4.5 -0.19037
5.7 4.6 -0.16571
5.7 4.7 -0.14077
5.7 4.8 -0.1158
5.7 4.9 -0.091043
5.7 5 -0.066756
5.7 5.1 -0.043177
5.7 5.2 -0.020542
5.7 5.3 0.0009222
5.7 5.4 0.021002
5.7 5.5 0.039496
5.7 5.6 0.05622
5.7 5.7 0.071007
5.7 5.8 0.083708
5.7 5.9 0.094198
5.7 6 0.10237
5.7 6.1 0.10815
5.7 6.2 0.11146
5.7 6.3 0.11229
5.7 6.4 0.11062
5.7 6.5 0.10648
5.7 6.6 0.099887
5.7 6.7 0.090924
5.7 6.8 0.079678
5.7 6.9 0.06626
5.7 7 0.050804
5.7 7.1 0.033465
5.7 7.2 0.014416
5.7 7.3 -0.006152
5.7 7.4 -0.028035
5.7 7.5 -0.051013
5.7 7.6 -0.074856
5.7 7.7 -0.099328
5.7 7.8 -0.12418
5.7 7.9 -0.14917
5.7 8 -0.17405
5.7 8.1 -0.19856
5.7 8.2 -0.22246
5.7 8.3 -0.24552
5.7 8.4 -0.26749
5.7 8.5 -0.28817
5.7 8.6 -0.30735
5.7 8.7 -0.32483
5.7 8.8 -0.34044
5.7 8.9 -0.35403
5.7 9 -0.36545
5.7 9.1 -0.3746
5.7 9.2 -0.38138
5.7 9.3 -0.38573
5.7 9.4 -0.38759
5.7 9.5 -0.38696
5.7 9.6 -0.38384
5.7 9.7 -0.37826
5.7 9.8 -0.37028
5.7 9.9 -0.35997
5.7 10 -0.34744
5.7 10.1 -0.33281
5.7 10.2 -0.31624
5.7 10.3 -0.29788
5.7 10.4 -0.27792
5.7 10.5 -0.25656
5.7 10.6 -0.23401
5.7 10.7 -0.21049
5.7 10.8 -0.18625
5.7 10.9 -0.16153
5.7 11 -0.13656
5.7 11.1 -0.11161
5.7 11.2 -0.08692
5.7 11.3 -0.062735
5.7 11.4 -0.039299
5.7 11.5 -0.016845
5.7 11.6 0.004401
5.7 11.7 0.024228
5.7 11.8 0.042437
5.7 11.9 0.058846
5.7 12 0.073292
5.7 12.1 0.08563
5.7 12.2 0.095737
5.7 12.3 0.10351
5.7 12.4 0.10888
5.7 12.5 0.11178
5.7 12.6 0.11219
5.7 12.7 0.1101
5.7 12.8 0.10554
5.7 12.9 0.098544
5.7 13 0.08919
5.7 13.1 0.07757
5.7 13.2 0.0638
5.7 13.3 0.048016
5.7 13.4 0.030377
5.7 13.5 0.011059
5.7 13.6 -0.0097454
5.7 13.7 -0.031828
5.7 13.8 -0.054968
5.7 13.9 -0.078934
5.7 14 -0.10349
5.7 14.1 -0.12838
5.7 14.2 -0.15337
5.7 14.3 -0.1782
5.7 14.4 -0.20263
5.7 14.5 -0.2264
5.7 14.6 -0.24929
5.7 14.7 -0.27107
5.7 14.8 -0.29151
5.7 14.9 -0.31041
5.7 15 -0.32759
5.8 -15 -0.30607
5.8 -14.9 -0.28889
5.8 -14.8 -0.26999
5.8 -14.7 -0.24955
5.8 -14.6 -0.22777
5.8 -14.5 -0.20488
5.8 -14.4 -0.1811
5.8 -14.3 -0.15668
5.8 -14.2 -0.13185
5.8 -14.1 -0.10686
5.8 -14 -0.081966
5.8 -13.9 -0.057413
5.8 -13.8 -0.033447
5.8 -13.7 -0.010307
5.8 -13.6 0.011775
5.8 -13.5 0.03258
5.8 -13.4 0.051898
5.8 -13.3 0.069537
5.8 -13.2 0.08532
5.8 -13.1 0.099091
5.8 -13 0.11071
5.8 -12.9 0.12006
5.8 -12.8 0.12706
5.8 -12.7 0.13162
5.8 -12.6 0.13371
5.8 -12.5 0.1333
5.8 -12.4 0.1304
5.8 -12.3 0.12503
5.8 -12.2 0.11726
5.8 -12.1 0.10715
5.8 -12 0.094813
5.8 -11.9 0.080367
5.8 -11.8 0.063958
5.8 -11.7 0.045749
5.8 -11.6 0.025922
5.8 -11.5 0.0046756
5.8 -11.4 -0.017778
5.8 -11.3 -0.041214
5.8 -11.2 -0.065399
5.8 -11.1 -0.090092
5.8 -11 -0.11504
5.8 -10.9 -0.14001
5.8 -10.8 -0.16473
5.8 -10.7 -0.18897
5.8 -10.6 -0.21249
5.8 -10.5 -0.23503
5.8 -10.4 -0.2564
5.8 -10.3 -0.27636
5.8 -10.2 -0.29472
5.8 -10.1 -0.31129
5.8 -10 -0.32592
5.8 -9.9 -0.33845
5.8 -9.8 -0.34876
5.8 -9.7 -0.35674
5.8 -9.6 -0.36232
5.8 -9.5 -0.36544
5.8 -9.4 -0.36607
5.8 -9.3 -0.36421
5.8 -9.2 -0.35986
5.8 -9.1 -0.35308
5.8 -9 -0.34393
5.8 -8.9 -0.33251
5.8 -8.8 -0.31892
5.8 -8.7 -0.30331
5.8 -8.6 -0.28583
5.8 -8.5 -0.26665
5.8 -8.4 -0.24597
5.8 -8.3 -0.22399
5.8 -8.2 -0.20094
5.8 -8.1 -0.17704
5.8 -8 -0.15253
5.8 -7.9 -0.12765
5.8 -7.8 -0.10266
5.8 -7.7 -0.077807
5.8 -7.6 -0.053336
5.8 -7.5 -0.029492
5.8 -7.4 -0.0065137
5.8 -7.3 0.015369
5.8 -7.2 0.035937
5.8 -7.1 0.054986
5.8 -7 0.072325
5.8 -6.9 0.087781
5.8 -6.8 0.1012
5.8 -6.7 0.11245
5.8 -6.6 0.12141
5.8 -6.5 0.128
5.8 -6.4 0.13215
5.8 -6.3 0.13381
5.8 -6.2 0.13298
5.8 -6.1 0.12967
5.8 -6 0.12389
5.8 -5.9 0.11572
5.8 -5.8 0.10523
5.8 -5.7 0.092528
5.8 -5.6 0.077741
5.8 -5.5 0.061017
5.8 -5.4 0.042523
5.8 -5.3 0.022443
5.8 -5.2 0.00097862
5.8 -5.1 -0.021656
5.8 -5 -0.045235
5.8 -4.9 -0.069522
5.8 -4.8 -0.094276
5.8 -4.7 -0.11925
5.8 -4.6 -0.14419
5.8 -4.5 -0.16885
5.8 -4.4 -0.19298
5.8 -4.3 -0.21635
5.8 -4.2 -0.23872
5.8 -4.1 -0.25986
5.8 -4 -0.27956
5.8 -3.9 -0.29763
5.8 -3.8 -0.31389
5.8 -3.7 -0.32818
5.8 -3.6 -0.34034
5.8 -3.5 -0.35026
5.8 -3.4 -0.35785
5.8 -3.3 -0.36302
5.8 -3.2 -0.36572
5.8 -3.1 -0.36593
5.8 -3 -0.36365
5.8 -2.9 -0.35889
5.8 -2.8 -0.35171
5.8 -2.7 -0.34217
5.8 -2.6 -0.33037
5.8 -2.5 -0.31644
5.8 -2.4 -0.3005
5.8 -2.3 -0.28272
5.8 -2.2 -0.26328
5.8 -2.1 -0.24236
5.8 -2 -0.22019
5.8 -1.9 -0.19697
5.8 -1.8 -0.17295
5.8 -1.7 -0.14836
5.8 -1.6 -0.12345
5.8 -1.5 -0.098466
5.8 -1.4 -0.073659
5.8 -1.3 -0.049276
5.8 -1.2 -0.025561
5.8 -1.1 -0.0027515
5.8 -1 0.018925
5.8 -0.9 0.039252
5.8 -0.8 0.058026
5.8 -0.7 0.07506
5.8 -0.6 0.090183
5.8 -0.5 0.10325
5.8 -0.4 0.11411
5.8 -0.3 0.12268
5.8 -0.2 0.12887
5.8 -0.1 0.1326
5.8 0 0.13385
5.8 0.1 0.1326
5.8 0.2 0.12887
5.8 0.3 0.12268
5.8 0.4 0.11411
5.8 0.5 0.10325
5.8 0.6 0.090183
5.8 0.7 0.07506
5.8 0.8 0.058026
5.8 0.9 0.039252
5.8 1 0.018925
5.8 1.1 -0.0027515
5.8 1.2 -0.025561
5.8 1.3 -0.049276
5.8 1.4 -0.073659
5.8 1.5 -0.098466
5.8 1.6 -0.12345
5.8 1.7 -0.14836
5.8 1.8 -0.17295
5.8 1.9 -0.19697
5.8 2 -0.22019
5.8 2.1 -0.24236
5.8 2.2 -0.26328
5.8 2.3 -0.28272
5.8 2.4 -0.3005
5.8 2.5 -0.31644
5.8 2.6 -0.33037
5.8 2.7 -0.34217
5.8 2.8 -0.35171
5.8 2.9 -0.35889
5.8 3 -0.36365
5.8 3.1 -0.36593
5.8 3.2 -0.36572
5.8 3.3 -0.36302
5.8 3.4 -0.35785
5.8 3.5 -0.35026
5.8 3.6 -0.34034
5.8 3.7 -0.32818
5.8 3.8 -0.31389
5.8 3.9 -0.29763
5.8 4 -0.27956
5.8 4.1 -0.25986
5.8 4.2 -0.23872
5.8 4.3 -0.21635
5.8 4.4 -0.19298
5.8 4.5 -0.16885
5.8 4.6 -0.14419
5.8 4.7 -0.11925
5.8 4.8 -0.094276
5.8 4.9 -0.069522
5.8 5 -0.045235
5.8 5.1 -0.021656
5.8 5.2 0.00097862
5.8 5.3 0.022443
5.8 5.4 0.042523
5.8 5.5 0.061017
5.8 5.6 0.077741
5.8 5.7 0.092528
5.8 5.8 0.10523
5.8 5.9 0.11572
5.8 6 0.12389
5.8 6.1 0.12967
5.8 6.2 0.13298
5.8 6.3 0.13381
5.8 6.4 0.13215
5.8 6.5 0.128
5.8 6.6 0.12141
5.8 6.7 0.11245
5.8 6.8 0.1012
5.8 6.9 0.087781
5.8 7 0.072325
5.8 7.1 0.054986
5.8 7.2 0.035937
5.8 7.3 0.015369
5.8 7.4 -0.0065137
5.8 7.5 -0.029492
5.8 7.6 -0.053336
5.8 7.7 -0.077807
5.8 7.8 -0.10266
5.8 7.9 -0.12765
5.8 8 -0.15253
5.8 8.1 -0.17704
5.8 8.2 -0.20094
5.8 8.3 -0.22399
5.8 8.4 -0.24597
5.8 8.5 -0.26665
5.8 8.6 -0.28583
5.8 8.7 -0.30331
5.8 8.8 -0.31892
5.8 8.9 -0.33251
5.8 9 -0.34393
5.8 9.1 -0.35308
5.8 9.2 -0.35986
5.8 9.3 -0.36421
5.8 9.4 -0.36607
5.8 9.5 -0.36544
5.8 9.6 -0.36232
5.8 9.7 -0.35674
5.8 9.8 -0.34876
5.8 9.9 -0.33845
5.8 10 -0.32592
5.8 10.1 -0.31129
5.8 10.2 -0.29472
5.8 10.3 -0.27636
5.8 10.4 -0.2564
5.8 10.5 -0.23503
5.8 10.6 -0.21249
5.8 10.7 -0.18897
5.8 10.8 -0.16473
5.8 10.9 -0.14001
5.8 11 -0.11504
5.8 11.1 -0.090092
5.8 11.2 -0.065399
5.8 11.3 -0.041214
5.8 11.4 -0.017778
5.8 11.5 0.0046756
5.8 11.6 0.025922
5.8 11.7 0.045749
5.8 11.8 0.063958
5.8 11.9 0.080367
5.8 12 0.094813
5.8 12.1 0.10715
5.8 12.2 0.11726
5.8 12.3 0.12503
5.8 12.4 0.1304
5.8 12.5 0.1333
5.8 12.6 0.13371
5.8 12.7 0.13162
5.8 12.8 0.12706
5.8 12.9 0.12006
5.8 13 0.11071
5.8 13.1 0.099091
5.8 13.2 0.08532
5.8 13.3 0.069537
5.8 13.4 0.051898
5.8 13.5 0.03258
5.8 13.6 0.011775
5.8 13.7 -0.010307
5.8 13.8 -0.033447
5.8 13.9 -0.057413
5.8 14 -0.081966
5.8 14.1 -0.10686
5.8 14.2 -0.13185
5.8 14.3 -0.15668
5.8 14.4 -0.1811
5.8 14.5 -0.20488
5.8 14.6 -0.22777
5.8 14.7 -0.24955
5.8 14.8 -0.26999
5.8 14.9 -0.28889
5.8 15 -0.30607
5.9 -15 -0.28339
5.9 -14.9 -0.26621
5.9 -14.8 -0.24731
5.9 -14.7 -0.22687
5.9 -14.6 -0.20509
5.9 -14.5 -0.1822
5.9 -14.4 -0.15842
5.9 -14.3 -0.134
5.9 -14.2 -0.10917
5.9 -14.1 -0.08418
5.9 -14 -0.059285
5.9 -13.9 -0.034732
5.9 -13.8 -0.010765
5.9 -13.7 0.012374
