1.08806 -3.30892 0.245395
1.1277 -3.28265 0.244243
1.11018 -3.27799 0.246279
1.14336 -3.25287 0.244993
1.16495 -3.25024 0.24266
1.17783 -3.23303 0.244229
1.20273 -3.22316 0.241537
1.20773 -3.20365 0.242637
1.28118 -3.17673 0.240062
1.2968 -3.16373 0.249439
1.27241 -3.15628 0.240683
1.33353 -3.13493 0.248311
1.33351 -3.12429 0.249495
1.36642 -3.10156 0.248842
1.37167 -3.10908 0.247497
1.40796 -3.08119 0.246548
1.39879 -3.07835 0.248208
1.42864 -3.05136 0.247246
1.44511 -3.05436 0.245757
1.46098 -3.02916 0.246815
1.48118 -3.02735 0.244976
1.49114 -3.00292 0.246059
1.51798 -3.00146 0.244353
1.52312 -2.98189 0.245829
1.55616 -2.97863 0.244051
1.5552 -2.96016 0.245627
1.59073 -2.95019 0.243304
1.58389 -2.93282 0.244918
1.62793 -2.92638 0.243026
1.61616 -2.91194 0.24492
1.64764 -2.89094 0.244925
0.381118 -3.81084 0.255471
0.430171 -3.80252 0.258705
0.428346 -3.77476 0.252646
0.480855 -3.76623 0.256629
0.473943 -3.74612 0.250428
0.530378 -3.72339 0.254156
0.512448 -3.71863 0.259873
0.582154 -3.70146 0.253184
0.503694 -3.69837 0.257329
0.558687 -3.68855 0.257656
0.545125 -3.67231 0.254519
0.630106 -3.66726 0.251386
0.573465 -3.65606 0.258044
0.603084 -3.65384 0.255164
0.585629 -3.63979 0.251256
0.615592 -3.62158 0.25619
0.648108 -3.62646 0.253273
0.652781 -3.59231 0.251969
0.691898 -3.5945 0.251103
0.657117 -3.58952 0.254724
0.695389 -3.56185 0.252265
0.721265 -3.54617 0.257536
0.759823 -3.54564 0.258686
0.758789 -3.51694 0.255132
0.803315 -3.51388 0.256671
0.794446 -3.48334 0.252428
0.845759 -3.4837 0.254826
0.829183 -3.47356 0.258354
0.832294 -3.46692 0.251259
0.865865 -3.45242 0.256902
0.8878 -3.45693 0.253284
0.901744 -3.42464 0.254961
0.927949 -3.42374 0.251331
0.937821 -3.40031 0.253378
0.98271 -3.39074 0.259965
0.971881 -3.36974 0.2513
1.02131 -3.35641 0.257979
1.0296 -3.34058 0.259072
1.06115 -3.32521 0.256316
1.06496 -3.31614 0.25775
1.10137 -3.29732 0.254958
1.09758 -3.28566 0.255914
1.14109 -3.27095 0.25377
1.13305 -3.26417 0.254969
1.1795 -3.2401 0.252291
1.16492 -3.23481 0.253351
1.19996 -3.21428 0.252614
1.25778 -3.19059 0.250424
1.26554 -3.16462 0.250497
1.30025 -3.14658 0.250164
1.34882 -3.13655 0.259294
1.32426 -3.12354 0.259757
1.35767 -3.10084 0.259073
1.38593 -3.10648 0.258138
1.39136 -3.0796 0.258577
1.42409 -3.0797 0.257302
1.42343 -3.05395 0.257753
1.46408 -3.0579 0.25695
1.45587 -3.02977 0.257117
1.49683 -3.02323 0.255512
1.48953 -3.00874 0.256856
1.53249 -2.99327 0.254545
1.52298 -2.98717 0.256602
1.57193 -2.97166 0.254383
1.55553 -2.96546 0.256371
1.58683 -2.94151 0.255971
1.60867 -2.94632 0.253908
1.56 -2.91398 0.259198
1.61906 -2.91863 0.255763
1.64366 -2.91663 0.253131
1.58934 -2.89684 0.259021
1.6519 -2.89707 0.255755
1.61685 -2.87564 0.258461
0.370126 -3.82297 0.267973
0.372226 -3.79862 0.268117
0.41862 -3.78692 0.265102
0.417026 -3.76649 0.264535
0.466359 -3.75409 0.262555
0.447656 -3.74125 0.266915
0.453581 -3.73762 0.268962
0.460913 -3.72982 0.26066
0.490074 -3.71348 0.263923
0.495621 -3.70882 0.266024
0.532143 -3.68305 0.260805
0.537251 -3.67736 0.262938
0.582001 -3.67395 0.267495
0.56435 -3.656 0.267217
0.578228 -3.64926 0.260223
0.627725 -3.64081 0.265117
0.604221 -3.62686 0.264549
0.672563 -3.61097 0.263056
0.638412 -3.60809 0.26903
0.644587 -3.6051 0.262579
0.677798 -3.58348 0.266955
0.684128 -3.58087 0.260456
0.716565 -3.57654 0.260715
0.717084 -3.5623 0.265243
0.754812 -3.53057 0.262695
0.770087 -3.53794 0.268752
0.793026 -3.50625 0.260856
0.80697 -3.47477 0.26575
0.855591 -3.47582 0.264806
0.848249 -3.46898 0.26722
0.899147 -3.45057 0.263382
0.885266 -3.44111 0.265275
0.920677 -3.4109 0.263173
0.940426 -3.41705 0.261363
0.957695 -3.38789 0.261783
0.993134 -3.36052 0.260071
1.03272 -3.35964 0.269088
1.05052 -3.32579 0.269167
1.07311 -3.328 0.26737
1.0853 -3.297 0.267466
1.11287 -3.29991 0.265981
1.12118 -3.27347 0.266317
1.15238 -3.2691 0.264448
1.15618 -3.2497 0.265184
1.1924 -3.24168 0.263238
1.19037 -3.22336 0.263885
1.27746 -3.19271 0.269964
1.2716 -3.18902 0.261166
1.31309 -3.16245 0.264476
1.2915 -3.1497 0.260806
1.35483 -3.13427 0.267804
1.27198 -3.1284 0.269062
1.30196 -3.10576 0.26768
1.39166 -3.10361 0.266659
1.33332 -3.08844 0.266924
1.38688 -3.08132 0.269594
1.43035 -3.07802 0.266009
1.36159 -3.06317 0.265385
1.42153 -3.06135 0.269289
1.47158 -3.05711 0.265844
1.39046 -3.0414 0.264271
1.45508 -3.03702 0.268629
1.50808 -3.02659 0.264889
1.41876 -3.01937 0.263166
1.48803 -3.01209 0.267989
1.44782 -2.99855 0.262295
1.52245 -2.99045 0.267717
1.54436 -2.99767 0.264098
1.47529 -2.97582 0.261239
1.5843 -2.97508 0.263958
1.50143 -2.96789 0.269399
1.55451 -2.96476 0.267113
1.50592 -2.95974 0.261003
1.53046 -2.94726 0.268797
1.58627 -2.94085 0.26669
1.62053 -2.94696 0.263348
1.53381 -2.93777 0.260193
1.55824 -2.92446 0.268017
1.62045 -2.91948 0.266654
1.6578 -2.91976 0.262903
1.58702 -2.90512 0.267657
1.65327 -2.89595 0.266441
1.61489 -2.88335 0.267122
1.64004 -2.85801 0.266187
0.391389 -3.81208 0.278093
0.359547 -3.80489 0.273821
0.366418 -3.80337 0.275789
0.396215 -3.78055 0.279381
0.404219 -3.77839 0.270761
0.41022 -3.76981 0.272279
0.439421 -3.76961 0.274742
0.439236 -3.74783 0.27609
0.488293 -3.74438 0.272757
0.482005 -3.71841 0.273151
0.516861 -3.70063 0.277311
0.535474 -3.70852 0.270045
0.523919 -3.68853 0.270249
0.558146 -3.67369 0.274822
0.589273 -3.66726 0.277758
0.598449 -3.63819 0.271652
0.635689 -3.63385 0.275329
0.654435 -3.60443 0.277628
0.681435 -3.60182 0.273064
0.694613 -3.57718 0.275392
0.725975 -3.57123 0.270975
0.733573 -3.54947 0.273191
0.777144 -3.53989 0.279775
0.77148 -3.51929 0.270831
0.818586 -3.49384 0.276568
0.827727 -3.47647 0.278701
0.86422 -3.47679 0.275746
0.865631 -3.45274 0.277076
0.907306 -3.44939 0.274146
0.902688 -3.42239 0.274922
0.948058 -3.41158 0.271766
0.942203 -3.40522 0.274031
0.993297 -3.39263 0.278833
0.990708 -3.38481 0.27034
0.977954 -3.37608 0.272099
1.03456 -3.36274 0.277288
1.01502 -3.35202 0.270712
1.07521 -3.33028 0.275584
1.07313 -3.30741 0.279413
1.11677 -3.30301 0.274378
1.11079 -3.28579 0.27842
1.15772 -3.27521 0.27318
1.08596 -3.26489 0.27883
1.14792 -3.26368 0.277444
1.11749 -3.24101 0.276915
1.1982 -3.24689 0.275894
1.1822 -3.2355 0.275939
1.21306 -3.1974 0.273544
1.27967 -3.19272 0.277938
1.31986 -3.16578 0.2771
1.23349 -3.159 0.278306
1.28617 -3.15959 0.272608
1.24184 -3.1484 0.270261
1.26415 -3.13643 0.276914
1.32004 -3.13328 0.271532
1.35966 -3.13825 0.276268
1.29564 -3.11709 0.275961
1.40052 -3.11381 0.275775
1.35338 -3.10658 0.270461
1.32529 -3.09369 0.274611
1.43867 -3.08541 0.274957
1.35556 -3.0737 0.273699
1.36231 -3.07021 0.279903
1.38508 -3.05141 0.272585
1.4763 -3.05658 0.274144
1.39154 -3.04707 0.278822
1.41443 -3.03061 0.271714
1.42227 -3.02702 0.278188
1.51481 -3.02886 0.273508
1.44383 -3.00941 0.270856
1.4514 -3.00489 0.277366
1.5537 -3.00226 0.273041
1.47585 -2.98426 0.273176
1.59215 -2.97525 0.272589
1.5096 -2.96123 0.275973
1.53972 -2.94132 0.275614
1.62766 -2.94442 0.271801
1.63993 -2.94747 0.279676
1.61614 -2.93266 0.279969
1.56998 -2.92295 0.275482
1.67104 -2.92679 0.272351
1.59802 -2.90071 0.27496
1.64481 -2.9006 0.278768
1.62704 -2.87969 0.274653
1.65642 -2.86012 0.274574
0.396853 -3.80419 0.288403
0.388042 -3.79789 0.286712
0.431954 -3.76274 0.283259
0.446315 -3.76548 0.285294
0.343919 -3.75648 0.284906
0.474729 -3.73504 0.280534
0.495327 -3.73399 0.282815
0.48897 -3.72767 0.28853
0.542817 -3.702 0.280356
0.531402 -3.6987 0.285857
0.573369 -3.66723 0.283028
0.594315 -3.66265 0.288316
0.614271 -3.6331 0.280055
0.641775 -3.63483 0.286322
0.687107 -3.60053 0.283856
0.671013 -3.59828 0.288315
0.732246 -3.5742 0.28946
0.711199 -3.56669 0.2857
0.732392 -3.56745 0.281575
0.751316 -3.5424 0.283817
0.777167 -3.54176 0.287364
0.790641 -3.51363 0.281609
0.820335 -3.50684 0.285125
0.863871 -3.4773 0.283374
0.848764 -3.46873 0.289723
0.906607 -3.45237 0.289446
0.887781 -3.44438 0.288092
0.907686 -3.44894 0.281799
0.95089 -3.42328 0.28422
0.926798 -3.41942 0.286466
0.994688 -3.40017 0.286987
0.919955 -3.38426 0.289423
0.962405 -3.38445 0.283951
1.00105 -3.36238 0.282719
1.03508 -3.36569 0.285103
0.953233 -3.35866 0.286979
1.07866 -3.34195 0.284225
0.987469 -3.3364 0.284949
1.03768 -3.33408 0.280965
1.1224 -3.31014 0.289763
1.01998 -3.30777 0.282345
1.11881 -3.30814 0.282517
1.04238 -3.29373 0.287916
1.05386 -3.28841 0.280778
1.16396 -3.28305 0.288724
1.07649 -3.2755 0.286595
1.15881 -3.27778 0.281158
1.20418 -3.25148 0.287338
1.10821 -3.2491 0.284483
1.14097 -3.23011 0.283219
1.14359 -3.22206 0.287952
1.19862 -3.22797 0.289356
1.28761 -3.19767 0.285617
1.26911 -3.17534 0.28681
1.32557 -3.16687 0.284422
1.2395 -3.15751 0.284166
1.30367 -3.14722 0.285462
1.27091 -3.13571 0.283019
1.36562 -3.13878 0.283574
1.34209 -3.1297 0.285254
1.30101 -3.11387 0.281893
1.4051 -3.11012 0.282741
1.41522 -3.10937 0.289038
1.3323 -3.09317 0.280992
1.37482 -3.0988 0.283751
1.44665 -3.08633 0.28241
1.45618 -3.08332 0.288546
1.35937 -3.07937 0.28964
1.40802 -3.07144 0.282639
1.38897 -3.05566 0.288576
1.48504 -3.05667 0.281576
1.49501 -3.0532 0.287701
1.44361 -3.04882 0.282095
1.42015 -3.0349 0.28796
1.52425 -3.03032 0.281099
1.47834 -3.02593 0.281575
1.53541 -3.02814 0.287386
1.44927 -3.01226 0.28714
1.51297 -3.00242 0.281058
1.56198 -3.00163 0.280441
1.57396 -2.99867 0.286717
1.47874 -2.98894 0.286345
1.54642 -2.97654 0.280373
1.60172 -2.97562 0.280139
1.6125 -2.97084 0.28624
1.50967 -2.96877 0.285985
1.54079 -2.95013 0.285855
1.58121 -2.95387 0.280077
1.65255 -2.94352 0.285937
1.57195 -2.93089 0.285754
1.59846 -2.90442 0.284806
1.63092 -2.88781 0.285156
1.65659 -2.86067 0.28425
0.401259 -3.80292 0.299298
0.34847 -3.79548 0.298815
0.401214 -3.78372 0.29396
0.450723 -3.76795 0.296454
0.354897 -3.75896 0.292127
0.445029 -3.75199 0.290889
0.500383 -3.73813 0.294091
0.50272 -3.7153 0.298622
0.547148 -3.70268 0.294857
0.545808 -3.68194 0.295563
0.593983 -3.67376 0.2963
0.588233 -3.65599 0.29324
0.640857 -3.63916 0.293848
0.630486 -3.6294 0.290935
0.68484 -3.61325 0.299246
0.68652 -3.60606 0.291566
0.688695 -3.58651 0.298855
0.730373 -3.57867 0.296964
0.730655 -3.56224 0.296955
0.776186 -3.54937 0.295196
0.769797 -3.52774 0.294156
0.816804 -3.50214 0.291932
0.816806 -3.49796 0.298425
0.80716 -3.48482 0.290655
0.864887 -3.48684 0.294951
0.776641 -3.4767 0.298913
0.814215 -3.4607 0.297163
0.910348 -3.46283 0.297294
0.954028 -3.43265 0.29571
0.848886 -3.42858 0.293806
0.872471 -3.41482 0.298754
0.884562 -3.40568 0.291503
0.907768 -3.39106 0.296498
0.995857 -3.39798 0.293791
0.973924 -3.381 0.297917
0.943177 -3.37075 0.294676
1.04628 -3.37363 0.298941
0.94545 -3.36438 0.298786
1.03871 -3.36863 0.292383
1.01252 -3.35688 0.296447
0.978746 -3.34539 0.294853
1.0521 -3.33579 0.295374
1.08388 -3.33911 0.294088
1.0129 -3.32373 0.293103
1.12884 -3.31083 0.295964
1.08798 -3.30485 0.293383
1.04846 -3.29993 0.293791
1.17064 -3.28118 0.294741
1.07977 -3.27114 0.291473
1.12536 -3.27908 0.291959
1.10366 -3.25419 0.298605
1.16114 -3.25097 0.290369
1.113 -3.24961 0.290009
1.1363 -3.23172 0.297182
1.17006 -3.21256 0.296202
1.29465 -3.19484 0.291608
1.33656 -3.1707 0.291095
1.23409 -3.16733 0.293651
1.28214 -3.16839 0.299277
1.26665 -3.14687 0.292727
1.31983 -3.14544 0.298473
1.37619 -3.14027 0.290069
1.29574 -3.12069 0.291185
1.35477 -3.11643 0.297121
1.32812 -3.10113 0.290516
1.33256 -3.10401 0.299425
1.39127 -3.09475 0.296532
1.43224 -3.09899 0.299216
1.36468 -3.08363 0.298795
1.47498 -3.07628 0.299048
1.42599 -3.06673 0.295393
1.39509 -3.05914 0.297754
1.51419 -3.04562 0.298171
1.42297 -3.03077 0.296296
1.46003 -3.03813 0.294261
1.45494 -3.01088 0.295933
1.49834 -3.01799 0.294097
1.55465 -3.01797 0.297662
1.48666 -2.99047 0.295599
1.53085 -2.98886 0.292998
1.51759 -2.96988 0.295269
1.56473 -2.9628 0.292288
1.63322 -2.96158 0.296631
1.54858 -2.94869 0.294956
1.60042 -2.93972 0.291964
1.57922 -2.92706 0.29467
1.63527 -2.91624 0.291665
1.60846 -2.90328 0.294173
1.67111 -2.89381 0.291566
1.63786 -2.88102 0.29392
0.369106 -3.81164 0.307949
0.399048 -3.80926 0.306546
0.345542 -3.79062 0.304981
0.414914 -3.78013 0.304815
0.33908 -3.77148 0.309867
0.449202 -3.77337 0.303722
0.458834 -3.75005 0.301893
0.494801 -3.74515 0.308434
0.497968 -3.73894 0.301069
0.543481 -3.71115 0.305957
0.518542 -3.70912 0.309587
0.562391 -3.67734 0.306679
0.590919 -3.67862 0.303651
0.639484 -3.65289 0.308821
0.605375 -3.64491 0.303804
0.638513 -3.64725 0.301525
0.646933 -3.61203 0.300954
0.684794 -3.61466 0.306166
0.731954 -3.58744 0.304554
0.664901 -3.56488 0.30884
0.776843 -3.55169 0.302253
0.781024 -3.55729 0.308701
0.702975 -3.53872 0.305772
0.727767 -3.52048 0.309725
0.777328 -3.5296 0.308866
0.740302 -3.5059 0.302123
0.765437 -3.49679 0.307151
0.820324 -3.49935 0.304473
0.870191 -3.4894 0.304619
0.813439 -3.47464 0.304122
0.858145 -3.47213 0.304469
0.80283 -3.45214 0.306684
0.91423 -3.4595 0.303022
0.837219 -3.43595 0.300826
0.84072 -3.43825 0.30546
0.896535 -3.43971 0.302016
0.958132 -3.42895 0.301429
0.93599 -3.41258 0.300142
0.875043 -3.40825 0.302587
1.00306 -3.40353 0.300356
0.900484 -3.39923 0.309714
0.911678 -3.39141 0.301199
0.934981 -3.37156 0.307314
1.05907 -3.36539 0.309197
0.970623 -3.35326 0.306002
1.01809 -3.3544 0.309291
1.05878 -3.33314 0.308188
1.10199 -3.33455 0.307766
1.00439 -3.32875 0.304066
1.03753 -3.30169 0.301946
1.09616 -3.30375 0.306353
1.1443 -3.30318 0.306327
1.0719 -3.28464 0.304931
1.13406 -3.2757 0.304727
1.18666 -3.27518 0.305247
1.10519 -3.26279 0.30754
1.17135 -3.24721 0.303104
1.13867 -3.23972 0.306141
1.17241 -3.21808 0.304978
1.24608 -3.19643 0.300667
1.31009 -3.18385 0.301687
1.35163 -3.15743 0.300983
1.26768 -3.14531 0.300947
1.30194 -3.12959 0.300717
1.35595 -3.12659 0.309726
1.39247 -3.12832 0.300098
1.42126 -3.11063 0.309807
1.39002 -3.09331 0.307954
1.35946 -3.08709 0.309796
1.461 -3.07883 0.308722
1.39172 -3.06396 0.308971
1.42573 -3.06504 0.306769
1.50258 -3.0541 0.308353
1.42212 -3.03886 0.307951
1.4612 -3.03848 0.305796
1.54149 -3.02326 0.307457
1.45434 -3.01684 0.307386
1.49913 -3.01663 0.30542
1.48689 -2.99608 0.307052
1.53584 -2.99237 0.304856
1.58416 -2.99868 0.307277
1.51877 -2.97503 0.306733
1.57119 -2.96588 0.304113
1.62294 -2.96854 0.306559
1.54976 -2.95164 0.306219
1.60699 -2.94076 0.303572
1.57931 -2.92613 0.3055
1.64183 -2.91538 0.303053
1.61146 -2.90543 0.305449
1.64284 -2.88442 0.305415
0.395598 -3.81316 0.313585
0.383819 -3.80863 0.319141
0.445815 -3.78437 0.314771
0.429588 -3.77472 0.315816
0.4948 -3.75449 0.315955
0.474254 -3.7383 0.312321
0.544839 -3.71861 0.316269
0.593154 -3.6843 0.313859
0.545524 -3.65227 0.319497
0.641892 -3.65165 0.314601
0.608604 -3.64977 0.319005
0.585815 -3.62374 0.315915
0.651425 -3.61867 0.316254
0.688121 -3.61695 0.312285
0.625695 -3.59263 0.312151
0.736015 -3.59127 0.310838
0.652399 -3.58019 0.316424
0.693699 -3.589 0.313708
0.656346 -3.57739 0.319815
0.690568 -3.55161 0.313165
0.735097 -3.55469 0.310809
0.694205 -3.54784 0.316593
0.792523 -3.54915 0.318949
0.731485 -3.51975 0.313613
0.837065 -3.51425 0.31678
0.757138 -3.50486 0.319561
0.768245 -3.48909 0.310454
0.882317 -3.48244 0.314979
0.812394 -3.47163 0.316891
0.859789 -3.47465 0.317816
0.791336 -3.46346 0.315354
0.829569 -3.451 0.314379
0.927834 -3.45599 0.31371
0.899846 -3.44195 0.315322
0.865021 -3.42239 0.311715
0.972323 -3.42495 0.312077
0.940867 -3.41644 0.313609
0.897814 -3.40689 0.318064
1.01481 -3.39168 0.310285
0.933608 -3.38273 0.31612
0.980393 -3.3866 0.311534
0.969294 -3.35997 0.314406
1.08339 -3.34139 0.318216
1.00444 -3.33675 0.312712
1.03868 -3.31526 0.311258
1.12714 -3.31204 0.316933
1.08657 -3.30489 0.318242
1.12784 -3.28445 0.317344
1.17044 -3.28417 0.315828
1.09314 -3.27219 0.318935
1.1283 -3.25075 0.317761
1.16749 -3.25964 0.316076
1.16136 -3.22529 0.316162
1.24404 -3.20677 0.31338
1.29799 -3.19898 0.312718
1.28138 -3.17863 0.31195
1.3397 -3.17076 0.311805
1.26143 -3.15531 0.312578
1.31953 -3.15362 0.310928
1.29383 -3.13188 0.311479
1.37853 -3.13652 0.310355
1.32611 -3.10784 0.310409
1.37109 -3.10898 0.319704
1.40826 -3.08287 0.318671
1.44614 -3.05799 0.317843
1.41685 -3.04122 0.319864
1.38791 -3.03571 0.319901
1.4822 -3.03097 0.316833
1.45166 -3.02251 0.319712
1.41768 -3.01739 0.319069
1.51912 -3.00501 0.31603
1.44513 -2.99303 0.317521
1.4826 -2.99626 0.318685
1.55815 -2.98406 0.315832
1.4725 -2.97027 0.316238
1.51488 -2.97307 0.318124
1.50143 -2.95064 0.315457
1.54733 -2.95144 0.317792
1.59097 -2.95205 0.314454
1.53079 -2.93239 0.31495
1.57734 -2.92596 0.317034
1.62926 -2.92998 0.31428
1.55867 -2.91224 0.314216
1.61134 -2.90662 0.317187
1.58339 -2.88634 0.31277
1.64197 -2.88175 0.316677
1.61359 -2.87052 0.312812
0.396159 -3.82554 0.32424
0.446351 -3.78839 0.324295
0.496259 -3.75228 0.321599
0.473811 -3.74364 0.327762
0.461814 -3.71949 0.328015
0.519866 -3.71629 0.325143
0.55548 -3.71114 0.329487
0.504413 -3.68223 0.323313
0.564395 -3.68041 0.321778
0.603788 -3.67729 0.32712
0.534737 -3.66684 0.328452
0.652494 -3.64658 0.325121
0.573224 -3.63582 0.323028
0.577278 -3.62705 0.325507
0.647696 -3.62404 0.329952
0.613155 -3.61229 0.320133
0.616895 -3.60253 0.322654
0.698343 -3.60765 0.322403
0.692315 -3.598 0.327759
0.642735 -3.5849 0.327839
0.745893 -3.57762 0.320593
0.681972 -3.56062 0.325272
0.734896 -3.5636 0.324817
0.719809 -3.53402 0.322514
0.77661 -3.52849 0.321886
0.752616 -3.51628 0.328038
0.814364 -3.51554 0.327031
0.790267 -3.49018 0.325558
0.863066 -3.49969 0.326649
0.826895 -3.46145 0.322895
0.908032 -3.46768 0.324821
0.887119 -3.45461 0.328565
0.861444 -3.4306 0.320039
0.952818 -3.43487 0.322983
0.928462 -3.42734 0.326627
0.918175 -3.40067 0.328383
0.998525 -3.4094 0.321872
0.968751 -3.39553 0.324318
0.954045 -3.37396 0.326238
1.01074 -3.3728 0.322985
1.04248 -3.37735 0.320224
0.990365 -3.35054 0.324547
1.0485 -3.33615 0.320313
1.02396 -3.32109 0.322222
1.10259 -3.3027 0.329856
1.05854 -3.29482 0.320349
1.14176 -3.27442 0.328151
1.18017 -3.24356 0.326253
1.15058 -3.23413 0.329009
1.1872 -3.21549 0.328287
1.25788 -3.19224 0.323678
1.29624 -3.16354 0.322206
1.2434 -3.15377 0.328578
1.25131 -3.15845 0.324646
1.33515 -3.14028 0.321346
1.28581 -3.13653 0.32375
1.27175 -3.12798 0.326415
1.31987 -3.11423 0.322868
1.3023 -3.10732 0.325003
1.33308 -3.0881 0.323855
1.35154 -3.08789 0.321555
1.36063 -3.06111 0.321739
1.38336 -3.0631 0.320481
1.46012 -3.05025 0.329133
1.41397 -3.03034 0.328779
1.49868 -3.02845 0.3287
1.44169 -3.00539 0.327242
1.5352 -3.0002 0.327664
1.47189 -2.98763 0.326716
1.57207 -2.97325 0.326839
1.50175 -2.96942 0.326211
1.52727 -2.94168 0.324471
1.60988 -2.94967 0.326424
1.55664 -2.92251 0.324005
1.64574 -2.92169 0.32562
1.61465 -2.9107 0.329919
1.58452 -2.90144 0.323306
1.61418 -2.88322 0.323125
1.64631 -2.88555 0.329396
0.381317 -3.81426 0.334778
0.40582 -3.81859 0.337487
0.348138 -3.79225 0.334682
0.373717 -3.78417 0.3367
0.428687 -3.78022 0.331348
0.455903 -3.77887 0.334407
0.405171 -3.76384 0.339189
0.418381 -3.74816 0.331917
0.506625 -3.74621 0.332032
0.448349 -3.72876 0.334678
0.453848 -3.72307 0.337018
0.51299 -3.726 0.339333
0.490547 -3.70105 0.331047
0.495575 -3.6923 0.333229
0.558946 -3.69194 0.336125
0.581113 -3.69877 0.33953
0.523397 -3.67392 0.337871
0.629378 -3.66659 0.337318
0.603142 -3.65533 0.332742
0.563869 -3.64541 0.334575
0.677096 -3.63168 0.334922
0.59774 -3.62955 0.339675
0.603208 -3.61247 0.330871
0.637776 -3.60146 0.336673
0.724164 -3.59415 0.332352
0.6763 -3.57101 0.333478
0.716656 -3.57798 0.338433
0.771354 -3.56393 0.330508
0.71402 -3.54006 0.330307
0.759812 -3.54705 0.335846
0.804376 -3.52128 0.333855
0.76932 -3.50683 0.33762
0.84621 -3.48719 0.331105
0.802146 -3.45064 0.331866
0.84415 -3.44884 0.332303
0.89834 -3.44798 0.339819
0.881687 -3.42498 0.330331
0.940441 -3.41841 0.337643
0.982284 -3.39021 0.335678
0.936849 -3.38325 0.339311
1.02233 -3.36175 0.33373
0.973182 -3.35805 0.33737
1.01052 -3.33606 0.335887
1.06123 -3.32667 0.331194
1.0457 -3.30987 0.333974
1.05297 -3.28384 0.339893
1.08086 -3.28316 0.332075
1.15292 -3.27234 0.339911
1.08544 -3.26227 0.337829
1.1159 -3.25786 0.33042
1.11834 -3.24421 0.336273
1.27097 -3.18852 0.335335
1.21306 -3.1774 0.330532
1.24731 -3.17355 0.338737
1.23435 -3.16227 0.337213
1.31156 -3.16725 0.334641
1.2656 -3.14148 0.335802
1.28186 -3.14988 0.337592
1.34743 -3.13425 0.332741
1.31632 -3.1255 0.336465
1.29581 -3.11844 0.334162
1.38685 -3.10978 0.331867
1.32694 -3.09876 0.333036
1.33091 -3.09072 0.33956
1.34944 -3.09885 0.335124
1.35798 -3.08068 0.332188
1.38375 -3.07546 0.334245
1.42268 -3.07749 0.330198
1.36019 -3.06607 0.337978
1.38602 -3.05465 0.330351
1.41583 -3.05017 0.333161
1.39003 -3.04481 0.336937
1.4224 -3.02836 0.33666
1.45082 -3.02943 0.332782
1.50806 -3.02785 0.339071
1.45152 -3.00632 0.335645
1.48372 -3.00469 0.331948
1.54444 -2.99894 0.338049
1.47936 -2.98203 0.334403
1.51609 -2.97955 0.331138
1.58437 -2.97635 0.337869
1.50982 -2.96266 0.333931
1.54905 -2.95574 0.330562
1.53983 -2.94274 0.333493
1.61962 -2.9465 0.336863
1.58162 -2.93369 0.330236
1.56822 -2.92094 0.332801
1.65687 -2.9194 0.336277
1.5944 -2.89526 0.331629
1.62228 -2.8726 0.330983
0.360454 -3.79824 0.343746
0.419014 -3.79408 0.346007
0.429232 -3.79954 0.346901
0.367177 -3.78872 0.345362
0.396481 -3.76969 0.349458
0.480135 -3.76536 0.344322
0.410723 -3.75723 0.341279
0.466585 -3.75729 0.342379
0.439305 -3.73704 0.345428
0.531062 -3.73238 0.34192
0.474184 -3.72013 0.349928
0.481719 -3.70374 0.341412
0.516068 -3.68587 0.345973
0.582172 -3.6771 0.347273
0.557107 -3.65899 0.342924
0.627807 -3.64196 0.34405
0.612914 -3.6203 0.348956
0.672891 -3.61425 0.34162
0.652881 -3.59169 0.345979
0.725989 -3.57231 0.34987
0.692313 -3.56058 0.342808
0.731307 -3.53499 0.340308
0.769658 -3.53713 0.346829
0.78691 -3.49308 0.348866
0.80908 -3.48582 0.342222
0.827039 -3.47366 0.347287
0.855955 -3.47904 0.342215
0.863339 -3.44215 0.34439
0.900669 -3.41386 0.341949
0.94939 -3.41848 0.349585
0.991621 -3.38978 0.347588
0.953306 -3.35778 0.347736
1.03216 -3.35888 0.345399
0.986399 -3.32971 0.344592
1.03444 -3.32358 0.347989
1.07255 -3.32723 0.343212
1.01997 -3.30696 0.342231
1.04397 -3.30049 0.349177
1.06926 -3.29517 0.345835
1.11229 -3.29923 0.341461
1.07581 -3.27267 0.34637
1.15821 -3.27812 0.349901
1.1055 -3.26985 0.344153
1.10797 -3.24824 0.344087
1.14062 -3.24211 0.34227
1.14317 -3.22118 0.348156
1.17586 -3.21795 0.34085
1.27736 -3.19386 0.345598
1.20844 -3.18184 0.345545
1.31598 -3.16396 0.344106
1.23896 -3.1568 0.343637
1.27035 -3.13509 0.342257
1.35549 -3.1373 0.343043
1.30188 -3.11692 0.341408
1.39478 -3.11223 0.342194
1.3643 -3.0838 0.349628
1.43195 -3.08297 0.340932
1.38971 -3.0585 0.348653
1.40228 -3.05976 0.348147
1.47297 -3.05619 0.344814
1.41925 -3.03417 0.347378
1.43774 -3.03731 0.34747
1.5147 -3.02985 0.348903
1.47225 -3.01448 0.3468
1.4475 -3.00984 0.346121
1.55356 -3.00334 0.348305
1.50677 -2.99105 0.346153
1.47783 -2.9883 0.34539
1.59202 -2.97633 0.347704
1.50875 -2.96823 0.344937
1.54005 -2.96545 0.345273
1.53696 -2.94441 0.343995
1.57374 -2.94104 0.344654
1.62848 -2.94724 0.346897
1.56609 -2.92167 0.343327
1.60742 -2.91827 0.344271
1.59646 -2.90227 0.343181
1.64091 -2.89495 0.34391
1.62785 -2.88396 0.343318
0.352739 -3.79966 0.353304
0.387982 -3.78286 0.357484
0.439913 -3.77859 0.357074
0.431724 -3.74979 0.353473
0.488322 -3.74544 0.353783
0.487882 -3.70858 0.358714
0.535594 -3.7096 0.35033
0.530477 -3.68569 0.35611
0.589449 -3.67017 0.358663
0.57205 -3.65233 0.352408
0.635861 -3.63675 0.355585
0.681382 -3.60278 0.352511
0.668737 -3.58145 0.357531
0.709257 -3.55377 0.354772
0.777104 -3.5407 0.359134
0.748535 -3.52568 0.352036
0.821085 -3.50847 0.35647
0.864133 -3.47778 0.354032
0.802732 -3.46208 0.358524
0.846335 -3.4578 0.35877
0.906381 -3.44652 0.351597
0.849597 -3.43136 0.356313
0.883664 -3.42584 0.355847
0.951114 -3.42282 0.358866
0.885284 -3.40855 0.353597
0.922745 -3.40292 0.354091
0.908386 -3.39381 0.358869
0.993081 -3.39348 0.356881
0.919753 -3.38135 0.350398
0.959503 -3.37382 0.351655
0.943088 -3.36966 0.356216
1.03388 -3.36176 0.354708
0.998011 -3.35192 0.350151
0.977566 -3.34701 0.353846
0.980029 -3.34352 0.359241
1.07615 -3.33503 0.353172
1.01063 -3.32206 0.351245
1.01343 -3.31755 0.356679
1.11542 -3.30025 0.350801
1.04717 -3.29495 0.354642
1.15978 -3.28229 0.359119
1.07942 -3.27018 0.352369
1.12122 -3.26661 0.359679
1.11261 -3.24865 0.350636
1.1363 -3.23253 0.358751
1.1561 -3.2367 0.357496
1.28084 -3.19727 0.355018
1.22952 -3.18858 0.354788
1.23475 -3.17009 0.354792
1.32121 -3.17037 0.353949
1.26215 -3.15764 0.352637
1.26523 -3.14402 0.352907
1.3602 -3.14092 0.352676
1.29928 -3.13713 0.351904
1.29572 -3.12167 0.351559
1.39865 -3.11114 0.351398
1.40561 -3.11267 0.359844
1.32886 -3.10398 0.351003
1.33299 -3.10864 0.350251
1.43846 -3.08637 0.350772
1.44372 -3.0817 0.35856
1.39573 -3.06182 0.358979
1.48644 -3.06099 0.358586
1.42536 -3.03704 0.357725
1.52398 -3.03102 0.357517
1.45474 -3.01174 0.35649
1.48738 -2.99324 0.35632
1.55991 -2.99887 0.356246
1.52539 -2.97908 0.359872
1.60051 -2.97474 0.35607
1.51645 -2.96912 0.355374
1.5493 -2.95145 0.355497
1.55998 -2.95493 0.359218
1.63965 -2.94827 0.355674
1.59554 -2.93192 0.358804
1.57797 -2.92629 0.354587
1.60824 -2.90433 0.354225
1.62732 -2.90333 0.357701
1.63971 -2.88551 0.354397
1.66399 -2.88273 0.35779
0.391301 -3.81096 0.360369
0.35585 -3.79746 0.369361
0.401278 -3.78041 0.367114
0.44678 -3.77408 0.368799
0.444718 -3.74284 0.362678
0.495442 -3.7368 0.365073
0.542635 -3.70079 0.361559
0.545207 -3.67467 0.367516
0.58671 -3.64084 0.363795
0.641669 -3.63555 0.367392
0.628501 -3.61234 0.360764
0.688316 -3.61113 0.365309
0.686495 -3.5713 0.369514
0.732257 -3.56825 0.361394
0.727298 -3.54123 0.366513
0.777339 -3.54434 0.367911
0.70336 -3.53729 0.369996
0.741468 -3.51456 0.366905
0.767766 -3.5167 0.364223
0.820922 -3.51144 0.365267
0.778286 -3.48935 0.363595
0.864894 -3.48381 0.363263
0.814671 -3.46155 0.360064
0.906205 -3.45291 0.369226
0.799894 -3.44944 0.365188
0.838895 -3.44644 0.365003
0.84127 -3.44081 0.36949
0.907493 -3.4497 0.360637
0.950049 -3.42512 0.367452
0.875041 -3.41804 0.364319
0.933241 -3.40154 0.36995
0.994381 -3.40073 0.366117
0.911507 -3.39013 0.363934
0.971861 -3.37394 0.367673
0.944837 -3.36122 0.360819
1.03416 -3.36437 0.363502
0.96976 -3.34992 0.368751
1.00841 -3.3421 0.364956
1.07781 -3.34075 0.362392
1.00395 -3.32736 0.366709
1.04671 -3.3174 0.363181
1.11907 -3.31076 0.360646
1.1232 -3.31443 0.369004
1.03858 -3.30614 0.36495
1.0834 -3.29037 0.36119
1.07111 -3.27881 0.362427
1.16221 -3.27987 0.366801
1.10368 -3.25491 0.360447
1.13792 -3.23836 0.3686
1.28792 -3.20018 0.363522
1.24185 -3.18584 0.369387
1.23804 -3.17636 0.364989
1.326 -3.16931 0.361997
1.33455 -3.16755 0.368987
1.27409 -3.15567 0.365667
1.36606 -3.14121 0.360918
1.37581 -3.14075 0.368119
1.30178 -3.13028 0.362329
1.31454 -3.13316 0.366454
1.33322 -3.10659 0.361022
1.34861 -3.10251 0.364542
1.41481 -3.10994 0.366817
1.36532 -3.08631 0.360259
1.38488 -3.08089 0.363814
1.45578 -3.0839 0.366175
1.42094 -3.05654 0.362871
1.45573 -3.03006 0.361701
1.49123 -3.00457 0.360776
1.48747 -2.99851 0.369396
1.57362 -2.99936 0.363845
1.51934 -2.97756 0.368985
1.55032 -2.95416 0.368331
1.58193 -2.93217 0.367951
1.61103 -2.90629 0.367057
1.64241 -2.88528 0.366983
1.61612 -2.87645 0.369451
0.396936 -3.80877 0.372353
0.414366 -3.7647 0.377948
0.500358 -3.74053 0.377429
0.457921 -3.73271 0.374149
0.501976 -3.70396 0.370821
0.548053 -3.70416 0.373864
0.59315 -3.67015 0.37859
0.561087 -3.66384 0.379328
0.594635 -3.66725 0.370313
0.640862 -3.64163 0.376117
0.604068 -3.63353 0.376033
0.645445 -3.60071 0.372533
0.686522 -3.60852 0.373235
0.626516 -3.59899 0.378533
0.730321 -3.58094 0.378958
0.732004 -3.57476 0.370361
0.665662 -3.56939 0.374367
0.691124 -3.55394 0.378623
0.776905 -3.5556 0.377153
0.728506 -3.52494 0.374799
0.731774 -3.52011 0.378919
0.817443 -3.50517 0.376474
0.765571 -3.4953 0.370992
0.866214 -3.49048 0.379888
0.768515 -3.48952 0.375148
0.863591 -3.48772 0.371865
0.790838 -3.4598 0.379809
0.803668 -3.45655 0.371158
0.81009 -3.45749 0.374055
0.830005 -3.45325 0.37948
0.85412 -3.45312 0.374307
0.908375 -3.45733 0.377438
0.865472 -3.42474 0.376303
0.893098 -3.42467 0.371765
0.951956 -3.42713 0.375434
0.90095 -3.40157 0.373942
0.997111 -3.40415 0.374308
0.935901 -3.37594 0.371333
1.03944 -3.3728 0.372316
1.04449 -3.37003 0.378935
0.969195 -3.36024 0.378741
1.08433 -3.34234 0.373958
1.00433 -3.33711 0.376724
1.05592 -3.32391 0.37886
1.03856 -3.31561 0.374991
1.12961 -3.31483 0.376043
1.0732 -3.29345 0.373282
1.09206 -3.29084 0.376137
1.1062 -3.26708 0.371064
1.13093 -3.26671 0.374606
1.16799 -3.23826 0.372614
1.22966 -3.18252 0.377762
1.26251 -3.15946 0.376429
1.29423 -3.13421 0.374838
1.39281 -3.13047 0.379401
1.32803 -3.11392 0.374068
1.34973 -3.1123 0.378863
1.43258 -3.10115 0.378289
1.36073 -3.09125 0.373045
1.38431 -3.08092 0.376923
1.39133 -3.06464 0.371504
1.42062 -3.05468 0.375708
1.39214 -3.04716 0.378726
1.42434 -3.04496 0.371056
1.5128 -3.04416 0.376518
1.42052 -3.02512 0.37717
1.45621 -3.02552 0.372409
1.55324 -3.01661 0.375859
1.44967 -3.0044 0.375924
1.49204 -3.00282 0.373545
1.48033 -2.98882 0.375579
1.52764 -2.97691 0.37261
1.50786 -2.96558 0.37408
1.56281 -2.95068 0.371673
1.63081 -2.95859 0.374325
1.53402 -2.94014 0.372303
1.59839 -2.9256 0.371003
1.56201 -2.9199 0.37143
1.6098 -2.90546 0.379957
1.63496 -2.9038 0.370817
1.58863 -2.89756 0.370285
0.368931 -3.80004 0.38223
0.401366 -3.8072 0.384191
0.449427 -3.77948 0.38902
0.451178 -3.77618 0.381003
0.498066 -3.74307 0.385459
0.473653 -3.72851 0.386666
0.546706 -3.70984 0.382333
0.517138 -3.69156 0.382415
0.591118 -3.68261 0.387629
0.546231 -3.65856 0.387204
0.637435 -3.64347 0.384085
0.586523 -3.62808 0.38273
0.685331 -3.62046 0.389948
0.613696 -3.61447 0.386887
0.684414 -3.6135 0.381628
0.61726 -3.60265 0.389608
0.649617 -3.60502 0.38937
0.652934 -3.58254 0.382482
0.731396 -3.58737 0.387268
0.656322 -3.57361 0.385762
0.691977 -3.57729 0.386512
0.776331 -3.55184 0.384366
0.694503 -3.54812 0.382452
0.733185 -3.54313 0.38296
0.72047 -3.53805 0.389389
0.775277 -3.51821 0.380605
0.757563 -3.50694 0.385628
0.821562 -3.50711 0.387231
0.870603 -3.49321 0.386979
0.827563 -3.46548 0.389373
0.914176 -3.46154 0.384742
0.862544 -3.43657 0.386225
0.897981 -3.43431 0.387794
0.958077 -3.43098 0.382729
0.898979 -3.41297 0.383886
0.9371 -3.40118 0.384767
1.00194 -3.40176 0.380939
0.934848 -3.3888 0.381561
0.977284 -3.37528 0.382709
1.01683 -3.35088 0.380897
1.10143 -3.33459 0.388837
1.02579 -3.32884 0.388537
1.14299 -3.30133 0.386806
1.05824 -3.29507 0.385234
1.09349 -3.27435 0.38381
1.12526 -3.27711 0.389159
1.12686 -3.2473 0.381611
1.163 -3.24668 0.386886
1.16169 -3.22754 0.380485
1.23782 -3.19022 0.383118
1.30949 -3.18408 0.381187
1.27629 -3.16591 0.381841
1.24453 -3.1576 0.387719
1.35112 -3.15768 0.380293
1.289 -3.14594 0.389659
1.27481 -3.13761 0.386057
1.31281 -3.13734 0.380115
1.32244 -3.1218 0.388321
1.30476 -3.11504 0.384122
1.41979 -3.10892 0.389492
1.33426 -3.09212 0.382197
1.35492 -3.09732 0.387002
1.36398 -3.07065 0.380597
1.38612 -3.07069 0.385421
1.40168 -3.06854 0.388524
1.38652 -3.05666 0.388826
1.50194 -3.05422 0.387903
1.41887 -3.04706 0.384407
1.44019 -3.04558 0.387752
1.41596 -3.03596 0.38757
1.45035 -3.0212 0.383134
1.4769 -3.0204 0.386758
1.44535 -3.01475 0.386342
1.47567 -2.9969 0.385728
1.48306 -2.99849 0.382407
1.51531 -2.99824 0.386254
1.50393 -2.97505 0.384539
1.51628 -2.97708 0.381981
1.55161 -2.97191 0.385282
1.53295 -2.95451 0.383664
1.54872 -2.95544 0.381559
1.58616 -2.94356 0.384073
1.56172 -2.93354 0.382808
1.57978 -2.93165 0.380877
1.62323 -2.91981 0.383605
1.5878 -2.90881 0.381379
1.61474 -2.88539 0.380262
1.64555 -2.88915 0.380664
0.398911 -3.81132 0.39217
0.339519 -3.78331 0.396246
0.383174 -3.7888 0.393857
0.446071 -3.78432 0.397021
0.42873 -3.75698 0.390024
0.495088 -3.75111 0.393885
0.544073 -3.72161 0.398707
0.462603 -3.71562 0.396033
0.543104 -3.71122 0.390111
0.491086 -3.70106 0.399525
0.518221 -3.69638 0.39949
0.505089 -3.68641 0.391466
0.59211 -3.68644 0.395564
0.532946 -3.67278 0.395277
0.537531 -3.66491 0.398169
0.563215 -3.66853 0.39633
0.638621 -3.65079 0.392429
0.641946 -3.65528 0.399573
0.575954 -3.63646 0.392151
0.607007 -3.63607 0.39272
0.688246 -3.6207 0.396646
0.643535 -3.59069 0.395959
0.735092 -3.58916 0.394163
0.682141 -3.5607 0.392134
0.732864 -3.55174 0.398883
0.779636 -3.55339 0.391246
0.714855 -3.54577 0.398435
0.775116 -3.52065 0.395789
0.752907 -3.51818 0.395213
0.790573 -3.49206 0.392282
0.882666 -3.48614 0.398367
0.811508 -3.46791 0.390108
0.856876 -3.46113 0.390132
0.803409 -3.45836 0.399988
0.926682 -3.45388 0.396099
0.881498 -3.4249 0.397155
0.971684 -3.42488 0.394279
0.925121 -3.41369 0.399751
0.917511 -3.3988 0.394572
1.01417 -3.3916 0.392017
0.966606 -3.3878 0.397647
0.954336 -3.37595 0.392539
1.05843 -3.36531 0.390648
0.990098 -3.35063 0.390267
1.0065 -3.35744 0.395086
1.0462 -3.32858 0.39277
1.12778 -3.31561 0.399116
1.08569 -3.30319 0.390963
1.08213 -3.28884 0.39911
1.08685 -3.26791 0.398741
1.11675 -3.26164 0.39686
1.15204 -3.23983 0.395442
1.21516 -3.20689 0.396682
1.29663 -3.19707 0.393153
1.21527 -3.18512 0.390576
1.25424 -3.18294 0.395361
1.23775 -3.17338 0.398341
1.25368 -3.166 0.390481
1.33834 -3.16895 0.39201
1.2686 -3.15081 0.396395
1.29031 -3.14877 0.392842
1.3779 -3.13663 0.390406
1.29693 -3.12217 0.393581
1.32906 -3.12567 0.391801
1.32944 -3.10618 0.39287
1.36554 -3.09627 0.390034
1.3577 -3.08078 0.390689
1.36503 -3.07875 0.39942
1.38309 -3.0755 0.399821
1.39517 -3.05751 0.398173
1.41518 -3.0502 0.398508
1.426 -3.03737 0.397261
1.44932 -3.0278 0.397757
1.45439 -3.01352 0.395765
1.48397 -3.0066 0.397291
1.48315 -2.99104 0.39459
1.53208 -2.99486 0.399222
1.51818 -2.98503 0.396839
1.51278 -2.96986 0.393729
1.56806 -2.96629 0.397964
1.5493 -2.95764 0.395585
1.54114 -2.94643 0.392591
1.60567 -2.94266 0.397461
1.58 -2.93212 0.39462
1.57056 -2.92635 0.392068
1.61499 -2.91262 0.394761
1.64245 -2.91662 0.396725
1.59962 -2.90593 0.391561
1.62564 -2.87973 0.390178
1.64156 -2.87898 0.392719
0.338074 -3.78051 0.409489
0.374529 -3.7841 0.406793
0.445104 -3.78789 0.404796
0.336966 -3.77202 0.402163
0.405852 -3.76159 0.408881
0.427971 -3.76612 0.407734
0.419146 -3.74815 0.401138
0.448918 -3.73062 0.404064
0.472883 -3.72958 0.403369
0.454271 -3.71893 0.406082
0.495963 -3.69026 0.401864
0.593905 -3.68744 0.402285
0.523688 -3.67357 0.407046
0.564265 -3.64717 0.403405
0.601526 -3.64124 0.408279
0.597828 -3.62917 0.408759
0.604285 -3.62223 0.400066
0.698439 -3.6111 0.407712
0.638047 -3.60321 0.405463
0.645391 -3.60608 0.40442
0.676584 -3.57273 0.401668
0.689377 -3.57825 0.401527
0.745632 -3.57927 0.405199
0.732086 -3.54046 0.409829
0.790978 -3.54493 0.402466
0.770484 -3.51436 0.406889
0.799646 -3.49554 0.407095
0.843368 -3.47327 0.405189
0.907851 -3.46912 0.408778
0.844736 -3.45262 0.400022
0.884826 -3.44478 0.402582
0.952633 -3.43641 0.406471
0.997286 -3.40709 0.404637
0.938374 -3.39063 0.408
0.97338 -3.35972 0.404871
0.990199 -3.34874 0.408649
1.01895 -3.34997 0.40734
1.0101 -3.3359 0.402841
1.05984 -3.32265 0.405228
1.02244 -3.31832 0.404723
1.04647 -3.31365 0.401104
1.05559 -3.29521 0.402011
1.1 -3.29495 0.403127
1.07899 -3.28572 0.409278
1.13788 -3.26291 0.400561
1.10982 -3.25564 0.405732
1.22768 -3.20548 0.40965
1.21187 -3.1928 0.407975
1.26847 -3.18272 0.408554
1.24679 -3.17343 0.405237
1.2432 -3.16965 0.406043
1.28266 -3.15344 0.404411
1.30758 -3.15776 0.407228
1.27274 -3.14228 0.403535
1.30292 -3.12053 0.401944
1.31569 -3.12545 0.402504
1.34333 -3.12484 0.404918
1.34961 -3.10067 0.401161
1.38326 -3.1023 0.404106
1.33276 -3.09623 0.400072
1.42055 -3.0738 0.402558
1.39072 -3.06179 0.409752
1.45882 -3.04846 0.401523
1.42112 -3.03934 0.408548
1.49652 -3.02485 0.400739
1.45118 -3.01858 0.407668
1.48162 -2.99705 0.406805
1.51168 -2.97509 0.405961
1.57628 -2.96212 0.409393
1.53999 -2.95127 0.404828
1.57018 -2.93033 0.404321
1.61512 -2.93941 0.40917
1.60162 -2.91253 0.404442
1.65225 -2.91239 0.408443
1.63108 -2.89073 0.403961
0.361074 -3.79985 0.414791
0.380528 -3.79211 0.410955
0.367779 -3.78637 0.416206
0.411251 -3.7509 0.410873
0.505913 -3.74553 0.419346
0.439722 -3.73856 0.416245
0.465053 -3.73504 0.419035
0.481958 -3.7014 0.41097
0.511642 -3.70963 0.416062
0.5166 -3.69132 0.417003
0.556935 -3.67182 0.411683
0.557063 -3.65659 0.412339
0.652176 -3.64801 0.410897
0.612882 -3.61973 0.419284
0.653522 -3.59717 0.416552
0.669807 -3.59211 0.417003
0.724206 -3.59741 0.418446
0.693302 -3.56802 0.413042
0.771038 -3.56527 0.415916
0.713224 -3.55594 0.413117
0.756434 -3.52709 0.410222
0.815445 -3.52273 0.412237
0.787722 -3.49836 0.419078
0.861861 -3.49729 0.410625
0.806663 -3.47359 0.417582
0.826803 -3.47307 0.416411
0.85142 -3.45714 0.416392
0.863877 -3.44564 0.413501
0.887475 -3.42167 0.418203
0.893557 -3.42621 0.413496
0.901186 -3.41743 0.410608
0.922724 -3.39849 0.415078
0.935217 -3.39672 0.410862
0.980003 -3.38214 0.410192
0.956153 -3.37297 0.411707
0.979843 -3.35806 0.417665
0.998096 -3.35328 0.41914
1.02718 -3.34102 0.419242
1.01388 -3.33697 0.41525
1.03399 -3.32321 0.416275
1.07046 -3.32102 0.418094
1.04774 -3.30685 0.415107
1.06931 -3.29671 0.41399
1.11007 -3.2931 0.415974
1.08176 -3.27924 0.415618
1.10614 -3.27331 0.412267
1.1489 -3.26061 0.413347
1.11345 -3.25198 0.412704
1.14123 -3.24566 0.410002
1.23765 -3.17891 0.417868
1.27037 -3.1767 0.418569
1.26888 -3.15471 0.415966
1.3094 -3.14882 0.417012
1.29931 -3.13846 0.419923
1.30023 -3.13414 0.414692
1.35097 -3.12777 0.416477
1.33534 -3.1156 0.41878
1.32901 -3.1055 0.412208
1.37018 -3.09038 0.417378
1.38777 -3.09721 0.414681
1.36026 -3.08373 0.410973
1.40483 -3.06675 0.416263
1.42557 -3.0699 0.413404
1.43862 -3.04062 0.41489
1.46321 -3.04185 0.412136
1.45833 -3.02029 0.41922
1.47152 -3.01433 0.413528
1.50044 -3.01331 0.410876
1.49191 -3.0034 0.419312
1.50784 -2.99439 0.4133
1.54008 -2.99168 0.410637
1.51931 -2.97577 0.417558
1.54013 -2.96697 0.411958
1.5531 -2.95982 0.418
1.57389 -2.94267 0.411196
1.58384 -2.93809 0.417515
1.60768 -2.91992 0.410721
1.61131 -2.91089 0.416128
1.66201 -2.9137 0.419962
1.64207 -2.8983 0.410547
1.63975 -2.88701 0.415373
0.388259 -3.78199 0.429842
0.396864 -3.7671 0.420492
0.417741 -3.76964 0.423214
0.431793 -3.74514 0.424552
0.474475 -3.72144 0.421161
0.532083 -3.687 0.427774
0.628291 -3.6638 0.423984
0.579782 -3.65475 0.423854
0.571866 -3.64963 0.423116
0.625457 -3.62366 0.420419
0.675981 -3.62909 0.420988
0.668862 -3.58259 0.428817
0.678448 -3.58237 0.429103
0.709655 -3.55697 0.425822
0.723027 -3.55395 0.42615
0.74896 -3.52898 0.422573
0.766763 -3.52086 0.422716
0.779992 -3.50225 0.429788
0.816535 -3.47456 0.42569
0.802087 -3.45938 0.428478
0.845973 -3.45709 0.429094
0.852375 -3.45034 0.422231
0.860184 -3.45945 0.429665
0.876133 -3.43626 0.427778
0.884851 -3.4329 0.42672
0.902609 -3.43026 0.426981
0.912735 -3.40672 0.427014
0.92373 -3.40811 0.424351
0.946214 -3.40623 0.425054
0.945231 -3.38071 0.420407
0.948356 -3.37782 0.426615
0.960466 -3.37909 0.421463
0.985386 -3.36614 0.421134
0.982468 -3.35434 0.423912
1.01738 -3.33418 0.421827
1.0726 -3.32479 0.428769
1.07608 -3.29702 0.428289
1.11175 -3.29009 0.425897
1.10721 -3.26745 0.425072
1.1194 -3.26203 0.428341
1.15442 -3.26803 0.424818
1.13822 -3.23948 0.422168
1.23271 -3.20955 0.420893
1.23023 -3.19178 0.423632
1.24085 -3.18487 0.42925
1.26421 -3.16456 0.421629
1.27176 -3.15829 0.427054
1.31198 -3.14938 0.427227
1.30405 -3.137 0.425808
1.35621 -3.13296 0.427493
1.33477 -3.11142 0.423965
1.39527 -3.10505 0.426196
1.36841 -3.09483 0.423677
1.39903 -3.07025 0.422176
1.43338 -3.07683 0.424916
1.42958 -3.04728 0.420999
1.47089 -3.04808 0.423643
1.51106 -3.024 0.42315
1.49206 -3.00761 0.429725
1.54717 -2.99228 0.421627
1.52537 -2.98039 0.428352
1.58636 -2.96707 0.421157
1.55996 -2.95623 0.427558
1.59458 -2.93147 0.426766
1.62372 -2.93992 0.42042
1.63367 -2.93893 0.429983
1.62928 -2.90816 0.426285
1.64224 -2.8865 0.429488
0.372077 -3.7844 0.433966
0.438675 -3.75783 0.435958
0.444922 -3.74389 0.435809
0.486737 -3.72479 0.431988
0.488325 -3.71369 0.431639
0.587331 -3.65144 0.436783
0.587028 -3.64387 0.436502
0.628613 -3.61349 0.432641
0.633468 -3.61825 0.433063
0.70503 -3.55408 0.437753
0.729704 -3.5536 0.439049
0.728211 -3.54809 0.439364
0.742849 -3.52542 0.433307
0.774032 -3.5241 0.436078
0.767623 -3.51387 0.436974
0.817773 -3.49201 0.432864
0.803723 -3.46577 0.434505
0.841437 -3.46316 0.43149
0.85999 -3.46343 0.439709
0.843167 -3.45143 0.435786
0.903664 -3.43524 0.437302
0.879035 -3.42933 0.433011
0.94663 -3.4065 0.434895
0.939451 -3.39226 0.438333
0.972372 -3.37675 0.438918
0.987922 -3.37538 0.432253
0.973982 -3.3682 0.435642
1.03154 -3.35524 0.431148
1.00983 -3.34884 0.436259
1.02933 -3.34999 0.439847
1.00698 -3.33988 0.432352
1.04718 -3.32039 0.433602
1.07104 -3.32071 0.437723
1.04177 -3.31867 0.43031
1.07316 -3.29433 0.437688
1.08452 -3.29531 0.431523
1.11449 -3.29848 0.436652
1.15568 -3.27206 0.435066
1.10677 -3.26984 0.435409
1.14034 -3.24685 0.433457
1.2363 -3.21557 0.43165
1.24244 -3.18865 0.439993
1.27625 -3.18734 0.430084
1.28168 -3.18625 0.439002
1.27836 -3.16077 0.43796
1.32115 -3.15924 0.437688
1.3152 -3.13608 0.436507
1.36109 -3.13121 0.43637
1.33014 -3.12025 0.438948
1.35082 -3.10907 0.434791
1.40121 -3.10447 0.435332
1.36215 -3.09586 0.43743
1.38564 -3.08382 0.433366
1.39526 -3.07466 0.436552
1.43758 -3.07016 0.433235
1.4193 -3.0541 0.431389
1.42499 -3.04773 0.43476
1.47575 -3.04055 0.431941
1.45649 -3.03299 0.430833
1.45808 -3.02745 0.434227
1.51739 -3.01967 0.431971
1.52835 -3.01719 0.44
1.48732 -2.99965 0.432464
1.55697 -2.99466 0.431484
1.52105 -2.98219 0.432586
1.56773 -2.9897 0.439239
1.59456 -2.96531 0.43046
1.60614 -2.96194 0.438472
1.55016 -2.95539 0.431156
1.58266 -2.93504 0.431002
1.64705 -2.9365 0.438248
1.61295 -2.91084 0.430238
1.63198 -2.89971 0.439547
0.390541 -3.79615 0.440674
0.401291 -3.77537 0.440266
0.44509 -3.74907 0.448303
0.45831 -3.73733 0.449025
0.493919 -3.71783 0.444532
0.502241 -3.70681 0.444823
0.54096 -3.68394 0.440526
0.545164 -3.6736 0.440372
0.603889 -3.63221 0.449531
0.639819 -3.62249 0.446553
0.6276 -3.6117 0.447045
0.645703 -3.60351 0.445937
0.667223 -3.58811 0.443128
0.684886 -3.58843 0.442795
0.686498 -3.57221 0.442096
0.692642 -3.56847 0.44696
0.729425 -3.5618 0.449294
0.734436 -3.54046 0.448208
0.73021 -3.53958 0.442519
0.773348 -3.52558 0.445585
0.771702 -3.51193 0.444141
0.81713 -3.49475 0.442647
0.794145 -3.47998 0.448725
0.859179 -3.47099 0.449699
0.811489 -3.4661 0.447249
0.832556 -3.46762 0.447474
0.855273 -3.45974 0.447305
0.868961 -3.44289 0.444398
0.903081 -3.44199 0.447286
0.895154 -3.43523 0.444872
0.903887 -3.41594 0.44105
0.945673 -3.41055 0.444628
0.93581 -3.40358 0.445536
0.988678 -3.38237 0.44249
0.972468 -3.37442 0.446193
1.03319 -3.35444 0.449116
1.00581 -3.34362 0.44262
1.04063 -3.32409 0.440922
1.07447 -3.32272 0.446708
1.05367 -3.31698 0.449801
1.11649 -3.29625 0.445104
1.09137 -3.28979 0.447419
1.13086 -3.26434 0.447476
1.15723 -3.2675 0.443238
1.24477 -3.2147 0.444489
1.23225 -3.19066 0.443608
1.28853 -3.18312 0.446545
1.26595 -3.16953 0.442351
1.33185 -3.16266 0.446289
1.29997 -3.14976 0.441414
1.37143 -3.13242 0.444703
1.41031 -3.10168 0.443121
1.38641 -3.08727 0.448567
1.45203 -3.07749 0.442608
1.42282 -3.06106 0.44711
1.49161 -3.04922 0.441571
1.45717 -3.03448 0.447808
1.48714 -3.00804 0.448453
1.49358 -3.00735 0.444256
1.51773 -2.98142 0.446969
1.52839 -2.97976 0.442846
1.55122 -2.96148 0.446772
1.56358 -2.95343 0.441732
1.58426 -2.94116 0.44659
1.60102 -2.93187 0.441494
1.61741 -2.92015 0.446424
1.64615 -2.89182 0.445013
0.396205 -3.79356 0.453829
0.368725 -3.7867 0.456126
0.344382 -3.77386 0.451466
0.414622 -3.76728 0.453238
0.498444 -3.7193 0.457646
0.517507 -3.69605 0.457889
0.546143 -3.68701 0.453848
0.547037 -3.67098 0.457073
0.561134 -3.6644 0.453699
0.592076 -3.65552 0.454653
0.587475 -3.64059 0.451902
0.614568 -3.62289 0.455619
0.637441 -3.62055 0.455234
0.618683 -3.61685 0.459667
0.656369 -3.5954 0.453769
0.683183 -3.58959 0.452008
0.696492 -3.56447 0.451692
0.727026 -3.5657 0.458526
0.721432 -3.54437 0.457741
0.733481 -3.54565 0.456974
0.771801 -3.53268 0.455314
0.758888 -3.51529 0.453673
0.774494 -3.51491 0.453362
0.816026 -3.50313 0.452633
0.829362 -3.47562 0.457921
0.86202 -3.47543 0.45878
0.865254 -3.45063 0.454888
0.904942 -3.4462 0.456352
0.901874 -3.42703 0.452177
0.947371 -3.4124 0.453405
0.937881 -3.40563 0.45847
0.993473 -3.38431 0.455188
0.978159 -3.37974 0.456031
0.992914 -3.3626 0.458814
1.04103 -3.36101 0.457771
1.01519 -3.34583 0.452486
1.02882 -3.34074 0.456814
1.08101 -3.32529 0.454823
1.06301 -3.31277 0.453891
1.12212 -3.29472 0.452676
1.09615 -3.28435 0.450983
1.22357 -3.20073 0.459867
1.23825 -3.19281 0.455332
1.26194 -3.19946 0.459987
1.25693 -3.17576 0.457951
1.27747 -3.17037 0.454126
1.30136 -3.16619 0.457819
1.29091 -3.15202 0.456358
1.34353 -3.14173 0.457007
1.3126 -3.13809 0.451497
1.32444 -3.12789 0.454788
1.34951 -3.11304 0.450025
1.38414 -3.11278 0.455663
1.3562 -3.10155 0.452924
1.39071 -3.08217 0.452333
1.42617 -3.089 0.455129
1.42106 -3.05317 0.450182
1.46529 -3.05934 0.453789
1.50602 -3.03235 0.452997
1.47828 -3.02464 0.458903
1.5482 -3.0083 0.452744
1.51164 -2.99172 0.456574
1.58766 -2.98055 0.451947
1.54616 -2.96191 0.454829
1.62847 -2.95572 0.451709
1.58409 -2.94077 0.454553
1.62301 -2.92062 0.454574
0.400268 -3.78974 0.466294
0.429007 -3.76128 0.466884
0.449667 -3.75689 0.462212
0.463073 -3.73179 0.467845
0.473458 -3.72499 0.461827
0.495999 -3.72555 0.46702
0.505744 -3.70268 0.462591
0.544721 -3.69447 0.46351
0.533693 -3.68295 0.465613
0.53852 -3.67699 0.469275
0.587643 -3.66119 0.468211
0.57469 -3.6503 0.460135
0.579272 -3.64719 0.464447
0.607206 -3.6383 0.468481
0.635176 -3.63195 0.465236
0.647181 -3.60307 0.465093
0.680661 -3.59427 0.461232
0.683727 -3.57283 0.46182
0.691655 -3.57583 0.460605
0.727912 -3.57201 0.46767
0.716812 -3.5597 0.469042
0.755058 -3.53211 0.465317
0.771744 -3.53267 0.463647
0.791909 -3.50025 0.460992
0.817534 -3.49906 0.464232
0.812439 -3.47405 0.465017
0.866166 -3.47806 0.466679
0.80404 -3.46238 0.46882
0.857101 -3.46352 0.46451
0.909617 -3.44645 0.463973
0.884242 -3.43862 0.467135
0.897398 -3.43291 0.461203
0.921321 -3.4164 0.464762
0.954369 -3.41974 0.462078
0.956972 -3.38781 0.461461
1.05117 -3.34464 0.468948
1.04696 -3.33274 0.467034
1.09578 -3.31964 0.467585
1.08456 -3.29919 0.465883
1.13721 -3.28657 0.465134
1.12335 -3.27191 0.46134
1.1188 -3.2695 0.465081
1.25322 -3.18139 0.468204
1.29143 -3.15286 0.466091
1.33018 -3.12975 0.464869
1.37248 -3.12596 0.46866
1.35301 -3.11007 0.469526
1.36672 -3.10047 0.462781
1.41343 -3.0966 0.467289
1.38661 -3.08482 0.467968
1.40449 -3.07638 0.461572
1.4564 -3.07203 0.466739
1.41806 -3.05778 0.466102
1.44149 -3.04971 0.460089
1.49527 -3.04209 0.465371
1.45395 -3.03892 0.465849
1.48613 -3.01242 0.464334
1.53314 -3.00961 0.463729
1.51859 -2.98729 0.463153
1.5756 -2.98522 0.463458
1.55248 -2.96515 0.462617
1.56582 -2.96308 0.469768
1.61428 -2.95527 0.462371
1.58236 -2.93786 0.461143
1.60341 -2.93955 0.469174
1.61537 -2.91497 0.460643
0.374718 -3.79807 0.47998
0.383573 -3.79691 0.471965
0.397543 -3.79558 0.475368
0.419424 -3.76423 0.473748
0.447475 -3.75994 0.471062
0.449404 -3.74465 0.476337
0.455081 -3.73669 0.479316
0.492672 -3.73332 0.476272
0.49175 -3.71509 0.471114
0.496811 -3.70224 0.473516
0.518709 -3.70246 0.477007
0.540629 -3.69556 0.471979
0.524671 -3.68542 0.479041
0.563398 -3.67066 0.472734
0.588598 -3.66674 0.477146
0.565121 -3.65515 0.474238
0.605234 -3.63021 0.470388
0.635504 -3.63521 0.473893
0.63923 -3.61295 0.476571
0.684694 -3.60496 0.478318
0.6809 -3.59907 0.470124
0.677879 -3.58267 0.472179
0.690348 -3.58618 0.478781
0.732122 -3.5775 0.475872
0.73307 -3.55385 0.474837
0.776981 -3.54367 0.472624
0.77137 -3.52017 0.477199
0.774709 -3.51901 0.470622
0.846922 -3.46435 0.470153
0.877625 -3.46867 0.478773
0.884963 -3.44673 0.478311
0.920419 -3.4328 0.475499
0.924897 -3.41387 0.474674
0.940783 -3.40216 0.478664
0.965541 -3.40576 0.473582
0.966779 -3.38995 0.472492
0.977503 -3.377 0.475969
1.00962 -3.37831 0.471668
1.00769 -3.36349 0.470043
1.01299 -3.34748 0.472669
1.04885 -3.32331 0.470336
1.05847 -3.31896 0.479527
