-1.39171 0.733424 -0.596338
-1.35163 0.736643 -0.599546
-1.286 0.745007 -0.594839
-1.36752 0.750483 -0.592414
-1.33186 0.753484 -0.59674
-1.30419 0.764681 -0.590581
-1.26909 0.760832 -0.592627
-1.34707 0.777167 -0.598126
-1.23638 0.785892 -0.599438
-1.32343 0.794292 -0.594801
-1.25954 0.80549 -0.597275
-1.21861 0.800764 -0.597214
-1.1945 0.810979 -0.592116
-1.27927 0.821133 -0.599209
-1.23864 0.821434 -0.594463
-1.25719 0.839581 -0.597116
-1.23047 0.853936 -0.593224
-1.13917 0.856125 -0.595199
-1.11867 0.868527 -0.59226
-1.14189 0.884258 -0.595381
-1.18835 0.891009 -0.590298
-1.13007 0.907231 -0.597222
-1.75968 0.456122 -0.583942
-1.75515 0.460407 -0.589215
-1.76357 0.48108 -0.581559
-1.7297 0.481163 -0.583764
-1.75882 0.494368 -0.587481
-1.6634 0.490874 -0.588176
-1.64663 0.49506 -0.587999
-1.7146 0.505678 -0.581815
-1.72841 0.515753 -0.582281
-1.6411 0.510199 -0.586911
-1.62378 0.51408 -0.582834
-1.605 0.513886 -0.588119
-1.73035 0.522693 -0.588831
-1.69282 0.521911 -0.586566
-1.60965 0.535952 -0.580858
-1.69389 0.540357 -0.582134
-1.67943 0.547459 -0.586916
-1.59775 0.544879 -0.586076
-1.63682 0.552628 -0.58572
-1.6231 0.566416 -0.587959
-1.57727 0.564138 -0.582173
-1.55828 0.578173 -0.584568
-1.59005 0.583588 -0.580789
-1.62791 0.593748 -0.580672
-1.54229 0.599239 -0.58255
-1.48474 0.606691 -0.587543
-1.58183 0.616413 -0.586976
-1.51657 0.625774 -0.585934
-1.46486 0.623836 -0.583428
-1.55623 0.636495 -0.582654
-1.46106 0.631843 -0.589985
-1.54196 0.649448 -0.588386
-1.49456 0.643928 -0.582014
-1.43717 0.646324 -0.584497
-1.50533 0.662508 -0.580702
-1.46703 0.66137 -0.587192
-1.41652 0.661991 -0.580361
-1.44636 0.67972 -0.583892
-1.38635 0.688711 -0.585283
-1.45541 0.699175 -0.585097
-1.42515 0.69819 -0.580593
-1.36625 0.704558 -0.581818
-1.43209 0.719592 -0.582495
-1.34933 0.720615 -0.587329
-1.30556 0.720289 -0.587914
-1.37925 0.733677 -0.58666
-1.32866 0.735695 -0.583863
-1.35407 0.749368 -0.582143
-1.39488 0.750064 -0.587467
-1.3687 0.768194 -0.584295
-1.34626 0.769446 -0.589718
-1.28259 0.779561 -0.587108
-1.24898 0.774265 -0.588967
-1.31704 0.782361 -0.583976
-1.22409 0.784059 -0.583147
-1.26389 0.796202 -0.584979
-1.29336 0.806726 -0.589061
-1.24071 0.80893 -0.580841
-1.21011 0.800531 -0.582379
-1.26947 0.822861 -0.585765
-1.17651 0.82513 -0.589896
-1.24522 0.838786 -0.582476
-1.21357 0.83311 -0.589669
-1.15814 0.839141 -0.587668
-1.19393 0.849382 -0.587537
-1.22378 0.856641 -0.580411
-1.14253 0.85523 -0.586892
-1.2053 0.86877 -0.589938
-1.17571 0.866237 -0.586071
-1.1499 0.876993 -0.581291
-1.13266 0.894588 -0.580503
-1.16148 0.903743 -0.586428
-1.13681 0.919061 -0.583779
-1.78377 0.459184 -0.576455
-1.73975 0.457228 -0.573025
-1.72536 0.473693 -0.575574
-1.75737 0.482185 -0.57182
-1.73432 0.50255 -0.576408
-1.67245 0.51935 -0.571125
-1.70117 0.521946 -0.570227
-1.61325 0.52739 -0.575981
-1.69646 0.53486 -0.576609
-1.65557 0.537855 -0.577635
-1.62906 0.55632 -0.574203
-1.58644 0.553728 -0.575708
-1.60274 0.568753 -0.577986
-1.63258 0.579965 -0.572363
-1.5567 0.58296 -0.578263
-1.58054 0.590284 -0.574284
-1.52901 0.598132 -0.571836
-1.55874 0.600481 -0.574201
-1.59531 0.612032 -0.575552
-1.51594 0.614707 -0.576756
-1.53583 0.62095 -0.570483
-1.44303 0.639734 -0.578627
-1.51909 0.64893 -0.57439
-1.47612 0.651458 -0.570206
-1.42301 0.655472 -0.574505
-1.47261 0.661348 -0.578101
-1.44526 0.675791 -0.572312
-1.38731 0.673002 -0.572841
-1.4818 0.682844 -0.577525
-1.45337 0.699301 -0.572686
-1.37126 0.690659 -0.570752
-1.40553 0.716927 -0.577924
-1.34596 0.71997 -0.578355
-1.40232 0.735083 -0.577666
-1.3807 0.732577 -0.573394
-1.32397 0.733971 -0.574224
-1.30476 0.749038 -0.575243
-1.37907 0.753989 -0.575096
-1.32861 0.764497 -0.577625
-1.28368 0.762712 -0.575591
-1.35214 0.770688 -0.571406
-1.30451 0.78043 -0.573738
-1.2672 0.780015 -0.574149
-1.28935 0.795752 -0.578855
-1.18534 0.809207 -0.576562
-1.26606 0.812167 -0.575574
-1.16033 0.817541 -0.570756
-1.24259 0.828128 -0.572291
-1.21719 0.821386 -0.576716
-1.19961 0.838053 -0.575263
-1.22367 0.84686 -0.570861
-1.18194 0.854189 -0.573816
-1.16241 0.86902 -0.571706
-1.19916 0.871666 -0.577141
-1.17454 0.886269 -0.573878
-1.15563 0.905171 -0.573054
-1.75093 0.436331 -0.564373
-1.77761 0.447105 -0.562913
-1.74305 0.444636 -0.566554
-1.75796 0.459266 -0.561991
-1.76951 0.466535 -0.568369
-1.70936 0.475585 -0.565837
-1.74187 0.489139 -0.563228
-1.69094 0.490397 -0.567213
-1.68425 0.49514 -0.560422
-1.72696 0.50332 -0.566156
-1.66886 0.511025 -0.562964
-1.6964 0.523765 -0.560496
-1.66619 0.539691 -0.563557
-1.63917 0.53558 -0.563352
-1.58708 0.54427 -0.569572
-1.64845 0.56514 -0.562078
-1.57317 0.565239 -0.567625
-1.5525 0.566908 -0.566747
-1.63329 0.572928 -0.565812
-1.59683 0.573647 -0.565022
-1.53071 0.584193 -0.562236
-1.60312 0.596025 -0.56448
-1.57338 0.593141 -0.560753
-1.55469 0.609692 -0.569433
-1.57381 0.619065 -0.563679
-1.50136 0.612382 -0.565414
-1.52529 0.626505 -0.563449
-1.4859 0.628424 -0.569693
-1.48192 0.630469 -0.562156
-1.51081 0.64035 -0.566199
-1.48857 0.662981 -0.565725
-1.44593 0.663763 -0.563163
-1.39758 0.668718 -0.568352
-1.46708 0.686003 -0.565807
-1.37896 0.684621 -0.564918
-1.42629 0.694099 -0.56966
-1.44088 0.703726 -0.561531
-1.40204 0.709383 -0.565123
-1.36005 0.700122 -0.561486
-1.35167 0.706112 -0.567305
-1.42944 0.718638 -0.569531
-1.32563 0.717063 -0.561142
-1.3777 0.724156 -0.560601
-1.40397 0.736135 -0.565826
-1.34931 0.743645 -0.566389
-1.37964 0.754512 -0.562694
-1.33078 0.762024 -0.564358
-1.28127 0.761385 -0.566631
-1.3629 0.778048 -0.562377
-1.25602 0.771638 -0.561155
-1.32511 0.78687 -0.567738
-1.31211 0.780089 -0.562331
-1.28032 0.795872 -0.569857
-1.24507 0.792552 -0.566232
-1.30256 0.805866 -0.565749
-1.22432 0.806895 -0.567243
-1.26217 0.81524 -0.568446
-1.20294 0.819493 -0.563795
-1.23806 0.8293 -0.564583
-1.28848 0.832165 -0.56711
-1.18438 0.834013 -0.561697
-1.14264 0.831121 -0.568543
-1.26253 0.84801 -0.564029
-1.21359 0.843112 -0.560726
-1.13212 0.850273 -0.569951
-1.20007 0.861733 -0.567606
-1.17756 0.877586 -0.564968
-1.14152 0.882075 -0.568927
-1.15511 0.892785 -0.56234
-1.11753 0.892454 -0.564821
-1.76591 0.456075 -0.550447
-1.72187 0.45542 -0.557213
-1.74775 0.468522 -0.556772
-1.71514 0.463943 -0.559965
-1.69442 0.474322 -0.550651
-1.7347 0.482981 -0.557946
-1.69434 0.484965 -0.555751
-1.75936 0.505955 -0.550025
-1.70592 0.504069 -0.552313
-1.71391 0.511063 -0.558102
-1.61544 0.546805 -0.551546
-1.61464 0.554447 -0.558515
-1.64007 0.564833 -0.550803
-1.58825 0.571989 -0.553086
-1.53254 0.575392 -0.55611
-1.6182 0.58434 -0.556974
-1.57028 0.59324 -0.550585
-1.50183 0.598166 -0.555176
-1.59118 0.60482 -0.552925
-1.57919 0.614657 -0.558144
-1.54611 0.610757 -0.555334
-1.47801 0.613835 -0.550034
-1.55285 0.634903 -0.554593
-1.54491 0.638417 -0.559612
-1.52732 0.632005 -0.552813
-1.50074 0.645568 -0.559194
-1.45553 0.644651 -0.556372
-1.5278 0.656013 -0.551569
-1.52072 0.660164 -0.557086
-1.47616 0.663797 -0.55495
-1.4376 0.662468 -0.553752
-1.46055 0.677271 -0.55766
-1.49459 0.680666 -0.554071
-1.42565 0.680957 -0.559902
-1.43521 0.694775 -0.553407
-1.39722 0.692424 -0.5535
-1.38949 0.716741 -0.555279
-1.33594 0.712709 -0.556002
-1.41931 0.723942 -0.558955
-1.31531 0.726183 -0.551895
-1.30283 0.729162 -0.55634
-1.39295 0.740347 -0.554704
-1.35825 0.740916 -0.557964
-1.28616 0.745301 -0.554257
-1.33684 0.756792 -0.554702
-1.26763 0.760067 -0.551491
-1.32889 0.788678 -0.555909
-1.28524 0.792638 -0.557196
-1.26445 0.809025 -0.554558
-1.22027 0.802176 -0.556963
-1.31468 0.813813 -0.556729
-1.19909 0.814648 -0.553518
-1.28846 0.828695 -0.553091
-1.23889 0.821627 -0.550066
-1.18691 0.833482 -0.554121
-1.2633 0.844828 -0.550011
-1.16408 0.847232 -0.558922
-1.19326 0.860169 -0.558719
-1.14358 0.860037 -0.556161
-1.17604 0.879043 -0.557949
-1.12441 0.873711 -0.55407
-1.14948 0.890575 -0.553495
-1.1121 0.893329 -0.555332
-1.14337 0.918626 -0.557651
-1.75631 0.463961 -0.545208
-1.78733 0.477023 -0.540321
-1.73256 0.4755 -0.543228
-1.77543 0.484761 -0.544325
-1.71413 0.487884 -0.549573
-1.6668 0.492527 -0.54408
-1.747 0.508171 -0.540429
-1.6891 0.510225 -0.545039
-1.60243 0.513061 -0.544063
-1.66464 0.522971 -0.546705
-1.62474 0.528641 -0.546659
-1.65061 0.549464 -0.545796
-1.64747 0.544482 -0.541101
-1.59741 0.545211 -0.540664
-1.58948 0.563985 -0.54614
-1.62565 0.571058 -0.541752
-1.6107 0.584138 -0.545715
-1.57014 0.583987 -0.543077
-1.50604 0.590327 -0.549705
-1.58308 0.603404 -0.541164
-1.48981 0.609145 -0.547124
-1.54512 0.61079 -0.545751
-1.56247 0.623421 -0.54838
-1.51812 0.626919 -0.540347
-1.45081 0.627053 -0.543625
-1.48269 0.639733 -0.54163
-1.53506 0.64274 -0.544369
-1.45479 0.645472 -0.541327
-1.44885 0.652375 -0.546741
-1.50935 0.662231 -0.540878
-1.47545 0.666176 -0.543153
-1.42131 0.664682 -0.540335
-1.49783 0.673033 -0.547029
-1.44643 0.678745 -0.549003
-1.41433 0.677412 -0.549228
-1.47389 0.694209 -0.544534
-1.4635 0.697202 -0.54955
-1.42471 0.698013 -0.545917
-1.39438 0.693485 -0.545981
-1.37255 0.708439 -0.542104
-1.44842 0.713508 -0.541548
-1.41113 0.712993 -0.549724
-1.40114 0.715875 -0.542261
-1.35887 0.726687 -0.548243
-1.39188 0.733779 -0.547764
-1.33177 0.737787 -0.54248
-1.3644 0.74874 -0.542967
-1.29584 0.740632 -0.548465
-1.36467 0.755414 -0.549903
-1.3186 0.757931 -0.542381
-1.2717 0.751487 -0.542995
-1.30736 0.766915 -0.548318
-1.2553 0.766867 -0.54093
-1.34412 0.775336 -0.547923
-1.24581 0.772343 -0.547378
-1.29189 0.786137 -0.547566
-1.22398 0.784188 -0.543266
-1.32678 0.796889 -0.547079
-1.26696 0.798476 -0.543067
-1.21001 0.800661 -0.542538
-1.30267 0.813839 -0.543991
-1.19412 0.815987 -0.541137
-1.277 0.828885 -0.540359
-1.22269 0.840132 -0.549302
-1.16106 0.841686 -0.548658
-1.19992 0.854164 -0.546061
-1.13813 0.851761 -0.544539
-1.23932 0.861694 -0.547505
-1.20385 0.867799 -0.540538
-1.17728 0.867528 -0.542826
-1.1239 0.868535 -0.544477
-1.15717 0.883106 -0.540834
-1.10363 0.880318 -0.541724
-1.1869 0.890037 -0.540838
-1.17131 0.913112 -0.54171
-1.748 0.455113 -0.535141
-1.72214 0.47843 -0.532823
-1.76235 0.495517 -0.532353
-1.75799 0.499742 -0.535982
-1.71008 0.497838 -0.539233
-1.62991 0.507019 -0.534554
-1.72363 0.518295 -0.530281
-1.67838 0.516167 -0.532578
-1.62883 0.516436 -0.539649
-1.71512 0.52865 -0.535641
-1.6586 0.529842 -0.538926
-1.61635 0.529043 -0.532736
-1.60388 0.534273 -0.534261
-1.68457 0.549815 -0.53133
-1.63669 0.552458 -0.535468
-1.58238 0.552628 -0.530056
-1.62495 0.567003 -0.537609
-1.5734 0.56293 -0.535847
-1.59512 0.585749 -0.53203
-1.55451 0.582445 -0.5328
-1.59877 0.591267 -0.537197
-1.56472 0.607289 -0.530565
-1.54718 0.601968 -0.538848
-1.51548 0.614921 -0.531695
-1.45429 0.619316 -0.537535
-1.56342 0.627099 -0.539218
-1.52204 0.637521 -0.530537
-1.49601 0.645055 -0.536697
-1.46717 0.658831 -0.53072
-1.42434 0.656351 -0.533652
-1.44452 0.679043 -0.536615
-1.39853 0.679262 -0.535835
-1.48317 0.681494 -0.537397
-1.38235 0.697058 -0.533876
-1.45859 0.701009 -0.534446
-1.42993 0.701261 -0.535842
-1.41957 0.729996 -0.537571
-1.34893 0.721929 -0.537598
-1.38089 0.734977 -0.539767
-1.32514 0.734888 -0.533096
-1.35389 0.749609 -0.534986
-1.39658 0.750929 -0.535623
-1.36878 0.767838 -0.532166
-1.34147 0.766564 -0.539881
-1.32843 0.764703 -0.530788
-1.29283 0.769093 -0.537254
-1.31852 0.783662 -0.536807
-1.27612 0.786474 -0.535902
-1.23557 0.780095 -0.537503
-1.2939 0.799235 -0.533179
-1.24862 0.79552 -0.530154
-1.21265 0.790578 -0.532712
-1.24059 0.808921 -0.537939
-1.21995 0.82362 -0.535325
-1.17191 0.826656 -0.537029
-1.20078 0.839126 -0.533338
-1.15259 0.839207 -0.534272
-1.25717 0.848453 -0.53898
-1.18312 0.855272 -0.531981
-1.13314 0.851386 -0.531526
-1.22961 0.861643 -0.534796
-1.11684 0.865222 -0.53013
-1.20631 0.87794 -0.532313
-1.10436 0.882884 -0.530766
-1.13115 0.893376 -0.53637
-1.13665 0.919276 -0.535335
-1.72814 0.453533 -0.522577
-1.71567 0.470371 -0.5252
-1.76732 0.484216 -0.524004
-1.69197 0.490865 -0.520716
-1.73235 0.501096 -0.521212
-1.70347 0.50147 -0.529939
-1.72314 0.512396 -0.525211
-1.66475 0.516319 -0.521127
-1.69802 0.535101 -0.52187
-1.64817 0.534744 -0.526453
-1.69557 0.540645 -0.526438
-1.59008 0.54591 -0.526776
-1.62316 0.554876 -0.521945
-1.56719 0.563498 -0.521993
-1.55525 0.568573 -0.524077
-1.60787 0.57088 -0.529909
-1.6279 0.593033 -0.524157
-1.58201 0.590831 -0.525412
-1.55496 0.59844 -0.523313
-1.52149 0.595101 -0.525057
-1.59846 0.613434 -0.520355
-1.50921 0.616635 -0.524366
-1.53748 0.626176 -0.526037
-1.49039 0.631148 -0.526892
-1.5138 0.645733 -0.522579
-1.46711 0.647148 -0.522677
-1.502 0.660177 -0.528615
-1.47514 0.678392 -0.524627
-1.43646 0.671284 -0.52417
-1.40382 0.67212 -0.52979
-1.38676 0.688955 -0.527214
-1.44988 0.696782 -0.521173
-1.42408 0.693245 -0.524023
-1.36108 0.700921 -0.521453
-1.35275 0.706943 -0.526831
-1.4273 0.715921 -0.529453
-1.39868 0.713216 -0.529316
-1.33473 0.72271 -0.524241
-1.40854 0.73923 -0.528579
-1.3787 0.731711 -0.52683
-1.31499 0.736878 -0.521018
-1.35204 0.745734 -0.522038
-1.30296 0.748398 -0.529227
-1.38204 0.75588 -0.525156
-1.28552 0.7644 -0.527256
-1.35501 0.772587 -0.521746
-1.30263 0.77951 -0.526597
-1.26943 0.781155 -0.525918
-1.27835 0.794886 -0.522988
-1.24355 0.791422 -0.520784
-1.22692 0.808986 -0.526921
-1.19443 0.803815 -0.529963
-1.26378 0.813821 -0.525327
-1.21139 0.826206 -0.526207
-1.1806 0.820006 -0.529265
-1.24535 0.83052 -0.526506
-1.18677 0.836097 -0.521726
-1.16033 0.831684 -0.525841
-1.22332 0.846934 -0.524025
-1.13718 0.840455 -0.521054
-1.16928 0.851708 -0.520378
-1.20263 0.864137 -0.522133
-1.16063 0.867667 -0.528752
-1.11121 0.873186 -0.521016
-1.17709 0.888826 -0.527584
-1.1426 0.88314 -0.527402
-1.12272 0.89724 -0.52543
-1.16254 0.91161 -0.528486
-1.73484 0.442365 -0.517902
-1.71895 0.454846 -0.510956
-1.77809 0.469525 -0.517347
-1.70869 0.462095 -0.512349
-1.70672 0.474799 -0.518655
-1.74846 0.491473 -0.512134
-1.67614 0.492322 -0.512002
-1.73006 0.504291 -0.513508
-1.66631 0.510115 -0.515696
-1.70434 0.523047 -0.51695
-1.63667 0.534565 -0.515547
-1.60779 0.541075 -0.514163
-1.6174 0.555642 -0.512682
-1.63457 0.573119 -0.511918
-1.59981 0.574893 -0.51798
-1.63898 0.583272 -0.518821
-1.54767 0.581968 -0.518406
-1.53346 0.585879 -0.519877
-1.57626 0.594399 -0.514021
-1.51732 0.595584 -0.511256
-1.50437 0.599815 -0.513317
-1.61029 0.603871 -0.51504
-1.55075 0.607726 -0.519329
-1.52859 0.617106 -0.51881
-1.48559 0.617895 -0.5103
-1.58486 0.625685 -0.512194
-1.5247 0.626137 -0.514852
-1.48452 0.63224 -0.519571
-1.51555 0.642635 -0.51851
-1.50017 0.645174 -0.510908
-1.45639 0.645551 -0.513595
-1.4869 0.659702 -0.513489
-1.48281 0.661559 -0.517026
-1.44521 0.663813 -0.519044
-1.46335 0.678674 -0.51007
-1.46346 0.683587 -0.515139
-1.42647 0.681876 -0.516593
-1.39794 0.693303 -0.510631
-1.44209 0.704223 -0.512744
-1.39648 0.70649 -0.518646
-1.42436 0.714979 -0.517735
-1.34511 0.718099 -0.519515
-1.37532 0.723117 -0.515596
-1.40514 0.736713 -0.516364
-1.35265 0.737781 -0.511969
-1.32594 0.732601 -0.516304
-1.30636 0.747167 -0.513094
-1.37922 0.753969 -0.512947
-1.2981 0.753145 -0.519065
-1.33025 0.76205 -0.518987
-1.27312 0.763893 -0.513941
-1.3547 0.771846 -0.510047
-1.30833 0.777935 -0.51595
-1.25749 0.780484 -0.512625
-1.33091 0.791166 -0.519361
-1.28767 0.794736 -0.513477
-1.30231 0.805365 -0.515459
-1.22253 0.804081 -0.517557
-1.20437 0.818862 -0.515594
-1.28078 0.825468 -0.514128
-1.23752 0.829319 -0.518642
-1.25337 0.839896 -0.510761
-1.1846 0.831903 -0.513003
-1.21446 0.844222 -0.515621
-1.16611 0.845986 -0.511044
-1.12153 0.854385 -0.519671
-1.19573 0.862479 -0.514318
-1.14732 0.863355 -0.517158
-1.17476 0.87708 -0.51492
-1.12372 0.873293 -0.513314
-1.10721 0.889117 -0.512612
-1.15689 0.895876 -0.514192
-1.76855 0.456882 -0.500961
-1.75917 0.459425 -0.509962
-1.7543 0.470689 -0.507086
-1.68952 0.473111 -0.504327
-1.74129 0.48522 -0.507663
-1.68236 0.481178 -0.506809
-1.72407 0.491443 -0.501446
-1.70684 0.504183 -0.501036
-1.71506 0.511204 -0.505971
-1.70117 0.525576 -0.508778
-1.62488 0.525491 -0.503892
-1.65017 0.530902 -0.505623
-1.61441 0.546454 -0.50567
-1.64885 0.566899 -0.50487
-1.58736 0.571612 -0.50658
-1.6244 0.587362 -0.50567
-1.60675 0.59376 -0.508141
-1.5693 0.592814 -0.50426
-1.59727 0.607908 -0.50194
-1.52976 0.602862 -0.50314
-1.48699 0.608461 -0.504108
-1.58535 0.61792 -0.506241
-1.52134 0.628996 -0.503992
-1.47381 0.628699 -0.502892
-1.55394 0.635072 -0.501561
-1.46506 0.634486 -0.506691
-1.5541 0.644063 -0.507982
-1.49714 0.647122 -0.500053
-1.44432 0.650616 -0.503093
-1.42485 0.656098 -0.50645
-1.52988 0.665944 -0.505632
-1.47891 0.665164 -0.508039
-1.41328 0.677304 -0.50636
-1.49725 0.682016 -0.500998
-1.44899 0.680077 -0.502534
-1.43458 0.694241 -0.505083
-1.39163 0.692379 -0.502752
-1.37303 0.709204 -0.500309
-1.41373 0.714403 -0.502715
-1.37874 0.710734 -0.508186
-1.41563 0.721374 -0.50879
-1.35299 0.72349 -0.503398
-1.38752 0.736596 -0.504335
-1.33382 0.739587 -0.500962
-1.36402 0.75477 -0.50144
-1.33278 0.754574 -0.509514
-1.28192 0.7581 -0.507974
-1.30958 0.768845 -0.505902
-1.26708 0.774632 -0.506677
-1.3253 0.785758 -0.505615
-1.28938 0.784829 -0.503444
-1.24715 0.787984 -0.503469
-1.23543 0.792428 -0.508773
-1.30347 0.804952 -0.503776
-1.26897 0.800396 -0.501001
-1.25899 0.805551 -0.508141
-1.22871 0.801773 -0.500889
-1.21668 0.805715 -0.506192
-1.19916 0.819992 -0.504246
-1.28184 0.823239 -0.501943
-1.24112 0.823711 -0.506839
-1.2204 0.838776 -0.504396
-1.16342 0.847989 -0.500348
-1.19754 0.852722 -0.501375
-1.14452 0.857295 -0.507826
-1.17931 0.869627 -0.500089
-1.12299 0.867968 -0.504611
-1.10844 0.884753 -0.50455
-1.76286 0.463048 -0.49366
-1.74416 0.479575 -0.496781
-1.66546 0.492366 -0.499352
-1.76375 0.507729 -0.491912
-1.71794 0.500699 -0.492118
-1.68633 0.508991 -0.493878
-1.62848 0.506775 -0.490536
-1.631 0.517423 -0.496282
-1.66461 0.532151 -0.490681
-1.65174 0.546104 -0.491686
-1.605 0.548461 -0.498611
-1.65509 0.55119 -0.49561
-1.57422 0.557422 -0.496322
-1.58263 0.567019 -0.494696
-1.63342 0.574473 -0.492839
-1.6167 0.586921 -0.495638
-1.56717 0.58274 -0.497282
-1.58548 0.604379 -0.490493
-1.54229 0.609466 -0.499251
-1.57011 0.627554 -0.49822
-1.51345 0.624639 -0.493701
-1.53589 0.642859 -0.492635
-1.44834 0.643015 -0.497527
-1.52393 0.652956 -0.497361
-1.42812 0.658746 -0.493935
-1.47099 0.663785 -0.495589
-1.4217 0.665413 -0.498902
-1.50038 0.674271 -0.495039
-1.39892 0.679975 -0.494712
-1.47952 0.697691 -0.493661
-1.42387 0.697473 -0.498614
-1.37594 0.694018 -0.490524
-1.4708 0.702025 -0.49821
-1.39693 0.713336 -0.494177
-1.38456 0.729111 -0.497745
-1.34762 0.721632 -0.495532
-1.37823 0.733342 -0.492381
-1.33192 0.739668 -0.494276
-1.36361 0.748089 -0.495396
-1.35777 0.751992 -0.490074
-1.31268 0.754489 -0.497938
-1.34059 0.765863 -0.492542
-1.3419 0.773586 -0.499073
-1.29477 0.7709 -0.496086
-1.31506 0.788333 -0.495176
-1.27175 0.783874 -0.49249
-1.29257 0.806231 -0.492828
-1.20248 0.809755 -0.495136
-1.24709 0.814226 -0.497979
-1.22336 0.826683 -0.494385
-1.18396 0.822722 -0.492567
-1.17534 0.829534 -0.499755
-1.25219 0.835566 -0.497545
-1.19963 0.83867 -0.490784
-1.16662 0.836665 -0.490636
-1.23129 0.854743 -0.496249
-1.13348 0.851893 -0.493333
-1.20456 0.868255 -0.492902
-1.12582 0.873026 -0.495832
-1.1592 0.885207 -0.498227
-1.18761 0.890522 -0.493162
-1.16202 0.904453 -0.490358
-1.75403 0.454383 -0.486705
-1.78996 0.477643 -0.483716
-1.72855 0.47498 -0.482075
-1.78323 0.488247 -0.48814
-1.72798 0.48054 -0.486542
-1.74782 0.507875 -0.482903
-1.7019 0.50089 -0.481897
-1.61589 0.500969 -0.482126
-1.65427 0.515189 -0.489619
-1.60761 0.526224 -0.486658
-1.65919 0.539189 -0.481355
-1.59513 0.531148 -0.488012
-1.58115 0.542904 -0.481139
-1.57187 0.548651 -0.483573
-1.63733 0.552579 -0.486037
-1.62382 0.566276 -0.487021
-1.61357 0.573284 -0.482375
-1.54249 0.577218 -0.48535
-1.59567 0.585786 -0.482368
-1.60816 0.59563 -0.489115
-1.53195 0.59489 -0.489573
-1.51985 0.594482 -0.481442
-1.57225 0.61086 -0.482552
-1.5175 0.61601 -0.488371
-1.50583 0.615153 -0.48026
-1.56582 0.628105 -0.488676
-1.4923 0.632225 -0.483919
-1.53436 0.644342 -0.483567
-1.48796 0.640921 -0.48924
-1.46892 0.648212 -0.480014
-1.45566 0.652698 -0.482641
-1.51132 0.664252 -0.485356
-1.44346 0.67521 -0.482489
-1.43833 0.675606 -0.489011
-1.40239 0.671942 -0.488572
-1.48546 0.682643 -0.486678
-1.38523 0.688724 -0.486175
-1.4576 0.699985 -0.483013
-1.42211 0.696773 -0.487747
-1.36279 0.702428 -0.481999
-1.3545 0.708501 -0.486923
-1.45077 0.714762 -0.489969
-1.39912 0.713461 -0.484377
-1.33474 0.723279 -0.483918
-1.42182 0.731241 -0.486303
-1.37741 0.730927 -0.481532
-1.31664 0.738428 -0.481511
-1.38954 0.745076 -0.481711
-1.30318 0.749023 -0.488323
-1.32562 0.762879 -0.484076
-1.28248 0.762851 -0.485309
-1.2664 0.779548 -0.484062
-1.31597 0.781832 -0.489168
-1.30469 0.78085 -0.481781
-1.29285 0.798422 -0.486323
-1.25037 0.79729 -0.489476
-1.24506 0.793044 -0.481052
-1.27093 0.815946 -0.484014
-1.23317 0.814184 -0.488219
-1.26695 0.821099 -0.489459
-1.20855 0.82448 -0.484045
-1.24571 0.835013 -0.484161
-1.19279 0.841403 -0.483374
-1.14783 0.848931 -0.48807
-1.22111 0.854704 -0.484819
-1.18187 0.854766 -0.489517
-1.17228 0.854671 -0.48096
-1.19651 0.86965 -0.482
-1.13208 0.862996 -0.486777
-1.16372 0.870777 -0.488253
-1.1099 0.872377 -0.482938
-1.17612 0.887875 -0.480729
-1.14275 0.883775 -0.485834
-1.7537 0.437586 -0.473749
-1.74213 0.444746 -0.474475
-1.73359 0.455453 -0.478015
-1.78284 0.468027 -0.478403
-1.71215 0.476798 -0.474393
-1.76402 0.480257 -0.471683
-1.76129 0.494343 -0.476132
-1.75706 0.498531 -0.4789
-1.69384 0.491627 -0.474965
-1.66072 0.509173 -0.47914
-1.7306 0.515679 -0.471755
-1.72606 0.518926 -0.474538
-1.67087 0.515354 -0.473562
-1.71595 0.528356 -0.478525
-1.64913 0.539716 -0.472627
-1.69791 0.541297 -0.471016
-1.68361 0.548492 -0.474162
-1.62869 0.557174 -0.475728
-1.55284 0.558262 -0.475075
-1.55005 0.566606 -0.479681
-1.52113 0.580739 -0.47361
-1.58414 0.591697 -0.477271
-1.5693 0.605215 -0.478213
-1.55278 0.608578 -0.471689
-1.54461 0.627337 -0.476465
-1.46908 0.624657 -0.472011
-1.51583 0.646611 -0.473748
-1.46133 0.648276 -0.473
-1.4915 0.666277 -0.470563
-1.44184 0.662097 -0.475033
-1.48212 0.682445 -0.476677
-1.40765 0.683835 -0.474821
-1.45684 0.700928 -0.473491
-1.39164 0.70367 -0.473605
-1.43101 0.718181 -0.479828
-1.36877 0.719176 -0.470242
-1.34172 0.716795 -0.47841
-1.40737 0.73812 -0.477599
-1.32255 0.731217 -0.47542
-1.35557 0.747971 -0.478693
-1.29485 0.746136 -0.473698
-1.37773 0.752408 -0.473515
-1.36471 0.764264 -0.479452
-1.33204 0.763248 -0.475341
-1.27142 0.763308 -0.473745
-1.36155 0.77731 -0.473634
-1.30525 0.775903 -0.470915
-1.25256 0.777684 -0.47133
-1.3327 0.792333 -0.470037
-1.28182 0.797297 -0.478959
-1.251 0.807702 -0.473518
-1.22102 0.803425 -0.476873
-1.19966 0.815809 -0.473869
-1.24089 0.831792 -0.474923
-1.18447 0.832307 -0.473221
-1.22064 0.844817 -0.477322
-1.21773 0.846707 -0.472132
-1.20142 0.86315 -0.47608
-1.15156 0.867517 -0.478548
-1.14861 0.861292 -0.470156
-1.17737 0.877768 -0.473273
-1.13083 0.880008 -0.47613
-1.10998 0.886437 -0.478777
-1.14705 0.897863 -0.476375
-1.78251 0.448428 -0.460422
-1.72246 0.456093 -0.467151
-1.78934 0.460597 -0.469325
-1.77841 0.469267 -0.464109
-1.71212 0.463382 -0.46837
-1.76086 0.48283 -0.464983
-1.68013 0.480637 -0.461763
-1.68136 0.494341 -0.46829
-1.73588 0.50445 -0.464644
-1.70807 0.524458 -0.463882
-1.62406 0.521937 -0.460766
-1.69501 0.532872 -0.466143
-1.61766 0.547907 -0.461621
-1.62092 0.55716 -0.467515
-1.59531 0.574012 -0.466266
-1.52613 0.573631 -0.469549
-1.64112 0.58392 -0.464041
-1.50298 0.589839 -0.465128
-1.62854 0.592699 -0.467994
-1.58157 0.596803 -0.468435
-1.49368 0.595216 -0.468077
-1.61058 0.603467 -0.460156
-1.54355 0.60943 -0.460895
-1.59891 0.613062 -0.464516
-1.49187 0.610859 -0.464549
-1.47493 0.61311 -0.46529
-1.52831 0.627826 -0.468052
-1.45267 0.628673 -0.461406
-1.51583 0.642583 -0.469921
-1.49497 0.642439 -0.462003
-1.48708 0.659622 -0.465322
-1.43476 0.661568 -0.468021
-1.40629 0.672111 -0.464918
-1.46769 0.683435 -0.465484
-1.39443 0.691396 -0.467242
-1.44552 0.706111 -0.465153
-1.42949 0.718109 -0.469849
-1.38017 0.711736 -0.466594
-1.41568 0.721204 -0.460564
-1.40705 0.737733 -0.467626
-1.34288 0.731656 -0.465815
-1.37943 0.753859 -0.464007
-1.33275 0.754617 -0.466751
-1.28167 0.758531 -0.468854
-1.30945 0.76884 -0.46341
-1.35322 0.770555 -0.460864
-1.26516 0.774008 -0.467049
-1.28916 0.784774 -0.461134
-1.24524 0.78729 -0.464061
-1.28612 0.793718 -0.469163
-1.23518 0.792805 -0.469522
-1.22524 0.799949 -0.461075
-1.304 0.80652 -0.466446
-1.26059 0.806719 -0.465287
-1.21482 0.804936 -0.466527
-1.19731 0.819164 -0.464711
-1.27946 0.824138 -0.464265
-1.25346 0.839778 -0.461639
-1.17792 0.8321 -0.462313
-1.22331 0.841087 -0.462342
-1.16145 0.842742 -0.46963
-1.16 0.845858 -0.460499
-1.19281 0.860248 -0.468812
-1.12411 0.869495 -0.46599
-1.17092 0.875455 -0.466549
-1.13411 0.875501 -0.463713
-1.76843 0.462528 -0.459996
-1.75245 0.469867 -0.455273
-1.74315 0.485662 -0.456135
-1.74869 0.491187 -0.459347
-1.72395 0.491235 -0.450574
-1.67422 0.495389 -0.457999
-1.64269 0.49458 -0.453665
-1.70862 0.504618 -0.450098
-1.7151 0.510866 -0.453726
-1.63221 0.518069 -0.453088
-1.70128 0.52522 -0.455902
-1.62843 0.530367 -0.458571
-1.60985 0.541637 -0.459461
-1.59914 0.546175 -0.452974
-1.57542 0.558054 -0.452553
-1.64641 0.563126 -0.454851
-1.58023 0.566134 -0.450375
-1.63993 0.575651 -0.459169
-1.61941 0.584129 -0.45143
-1.57022 0.584217 -0.453914
-1.612 0.596342 -0.455703
-1.57084 0.593543 -0.459266
-1.53845 0.607646 -0.453178
-1.58543 0.617462 -0.452673
-1.58018 0.622066 -0.456294
-1.52114 0.628865 -0.457752
-1.46117 0.623251 -0.457942
-1.43738 0.638154 -0.453524
-1.55274 0.642538 -0.453274
-1.49518 0.646081 -0.45363
-1.425 0.64113 -0.45588
-1.41727 0.65369 -0.450203
-1.40597 0.657407 -0.453099
-1.52524 0.66215 -0.450276
-1.47309 0.663431 -0.454932
-1.39162 0.676252 -0.451954
-1.45228 0.681816 -0.456714
-1.38131 0.686599 -0.458072
-1.44123 0.69797 -0.459488
-1.42532 0.698253 -0.452629
-1.3726 0.709131 -0.459069
-1.40597 0.71413 -0.451981
-1.34341 0.71843 -0.455964
-1.39098 0.732963 -0.45274
-1.38916 0.737462 -0.456947
-1.33345 0.739504 -0.459362
-1.3704 0.758882 -0.455697
-1.30586 0.750112 -0.454403
-1.29116 0.768573 -0.45377
-1.34501 0.775559 -0.452564
-1.27594 0.787017 -0.453137
-1.33159 0.790237 -0.459143
-1.3035 0.804764 -0.455549
-1.26875 0.800334 -0.458871
-1.23444 0.804939 -0.451782
-1.22872 0.814582 -0.459299
-1.20359 0.811102 -0.457502
-1.28031 0.821811 -0.453393
-1.22604 0.828854 -0.453804
-1.188 0.826284 -0.456298
-1.25362 0.836536 -0.450293
-1.17065 0.840258 -0.454497
-1.20045 0.855055 -0.459542
-1.15021 0.851378 -0.451513
-1.14034 0.858069 -0.458103
-1.18211 0.871981 -0.458346
-1.15303 0.880194 -0.45344
-1.7646 0.455432 -0.449973
-1.75861 0.461584 -0.444156
-1.73832 0.477384 -0.445711
-1.71202 0.498395 -0.44146
-1.62042 0.504335 -0.445367
-1.68961 0.510126 -0.444556
-1.65286 0.517065 -0.441204
-1.62598 0.517859 -0.446775
-1.605 0.525557 -0.443321
-1.666 0.532591 -0.441201
-1.59435 0.531042 -0.444993
-1.65145 0.545743 -0.441126
-1.59117 0.546831 -0.441774
-1.5692 0.547783 -0.440409
-1.65661 0.551584 -0.444711
-1.64271 0.565396 -0.447315
-1.61489 0.585584 -0.443468
-1.55585 0.583323 -0.446281
-1.54007 0.598812 -0.448315
-1.58879 0.602607 -0.447165
-1.53306 0.600756 -0.442683
-1.51685 0.615802 -0.444723
-1.56331 0.623106 -0.444192
-1.51295 0.624442 -0.449072
-1.55402 0.634593 -0.448404
-1.49495 0.633688 -0.441622
-1.53736 0.643387 -0.441227
-1.49252 0.643332 -0.446451
-1.52548 0.653499 -0.444996
-1.47204 0.661535 -0.443835
-1.49708 0.671538 -0.441598
-1.39832 0.670132 -0.447428
-1.49891 0.682662 -0.447714
-1.45149 0.682846 -0.447872
-1.37086 0.68148 -0.44192
-1.47623 0.694911 -0.440311
-1.42494 0.698406 -0.443782
-1.37197 0.69201 -0.449166
-1.35519 0.6986 -0.440252
-1.46918 0.700345 -0.444329
-1.34716 0.704476 -0.444746
-1.40359 0.716099 -0.441162
-1.33245 0.722086 -0.443605
-1.31349 0.728148 -0.447503
-1.38122 0.735118 -0.447373
-1.36334 0.747826 -0.448665
-1.35567 0.75068 -0.44379
-1.30576 0.750898 -0.449057
-1.34191 0.76665 -0.446503
-1.27863 0.760423 -0.444099
-1.25776 0.773721 -0.441309
-1.3173 0.782614 -0.443399
-1.31964 0.791441 -0.449455
-1.29408 0.799191 -0.440785
-1.24051 0.79026 -0.445488
-1.28924 0.803617 -0.444922
-1.22492 0.808144 -0.44486
-1.26976 0.823093 -0.443712
-1.21398 0.828872 -0.445851
-1.1946 0.834864 -0.447803
-1.18462 0.835065 -0.440376
-1.24997 0.842549 -0.442515
-1.23409 0.85696 -0.449551
-1.18139 0.85452 -0.448229
-1.21019 0.873022 -0.447411
-1.16482 0.871771 -0.447588
-1.18446 0.887611 -0.444815
-1.14228 0.883492 -0.444806
-1.74964 0.452988 -0.438425
-1.73075 0.454648 -0.431314
-1.72588 0.474122 -0.434657
-1.7947 0.483945 -0.437188
-1.78472 0.488249 -0.431168
-1.72726 0.480291 -0.438574
-1.70016 0.494041 -0.430442
-1.76873 0.509779 -0.434666
-1.70109 0.500604 -0.434341
-1.68363 0.518072 -0.436774
-1.65501 0.537397 -0.432092
-1.63504 0.551492 -0.436081
-1.62445 0.569854 -0.439573
-1.61983 0.56426 -0.436005
-1.56631 0.563663 -0.437204
-1.60951 0.571367 -0.432312
-1.55804 0.570116 -0.439838
-1.53939 0.579176 -0.432128
-1.59345 0.584529 -0.432197
-1.53605 0.587395 -0.436268
-1.60079 0.591672 -0.436605
-1.52314 0.598514 -0.430086
-1.58698 0.604829 -0.439639
-1.51192 0.603617 -0.432194
-1.57521 0.612125 -0.433216
-1.50145 0.613181 -0.436598
-1.56046 0.624741 -0.436246
-1.47844 0.629482 -0.433016
-1.53057 0.641825 -0.432017
-1.47493 0.651488 -0.439026
-1.50982 0.6618 -0.437866
-1.44774 0.665418 -0.434444
-1.48192 0.679953 -0.434504
-1.44105 0.673933 -0.438267
-1.42212 0.679668 -0.430367
-1.45724 0.699401 -0.432005
-1.42191 0.692106 -0.436147
-1.3974 0.707177 -0.432553
-1.44586 0.710746 -0.436524
-1.33256 0.711887 -0.436386
-1.31507 0.727104 -0.434163
-1.42163 0.730645 -0.434422
-1.37685 0.730581 -0.437086
-1.30445 0.731102 -0.438091
-1.35165 0.745507 -0.433496
-1.29374 0.740442 -0.430847
-1.28597 0.746144 -0.435864
-1.39692 0.750373 -0.432339
-1.26562 0.759747 -0.433084
-1.33466 0.764941 -0.432356
-1.32678 0.763614 -0.439264
-1.24688 0.774035 -0.43086
-1.30576 0.781566 -0.43714
-1.23342 0.784833 -0.437437
-1.2829 0.798006 -0.434548
-1.22485 0.806462 -0.438989
-1.26756 0.816462 -0.435792
-1.20494 0.820028 -0.436756
-1.17754 0.827051 -0.431811
-1.24527 0.830338 -0.435096
-1.2247 0.847895 -0.433456
-1.16415 0.84817 -0.438133
-1.22381 0.856746 -0.439432
-1.14059 0.858398 -0.434816
-1.19901 0.871673 -0.436835
-1.17861 0.889948 -0.435664
-1.73363 0.442391 -0.426993
-1.72311 0.456529 -0.422679
-1.70902 0.462594 -0.422807
-1.79387 0.4758 -0.426944
-1.70002 0.472737 -0.425748
-1.76764 0.496941 -0.422573
-1.67646 0.492707 -0.421997
-1.76165 0.500332 -0.424086
-1.74922 0.507868 -0.426433
-1.67173 0.51574 -0.427494
-1.73746 0.524574 -0.421634
-1.72222 0.531296 -0.423572
-1.641 0.536386 -0.424092
-1.62791 0.556781 -0.427863
-1.61806 0.555961 -0.420773
-1.6008 0.575235 -0.423644
-1.58169 0.590472 -0.428098
-1.56701 0.603879 -0.428403
-1.55192 0.608094 -0.423446
-1.49596 0.612886 -0.425012
-1.48425 0.617664 -0.427112
-1.53857 0.621757 -0.424188
-1.47214 0.628459 -0.420953
-1.54602 0.630188 -0.428979
-1.46531 0.63501 -0.424548
-1.5204 0.64886 -0.425632
-1.45516 0.645216 -0.429428
-1.44271 0.650212 -0.420976
-1.43025 0.659299 -0.425351
-1.50542 0.661581 -0.429085
-1.49768 0.669541 -0.423136
-1.41694 0.679642 -0.424759
-1.4817 0.681847 -0.426581
-1.45129 0.697105 -0.422392
-1.40513 0.697739 -0.428771
-1.39509 0.694688 -0.421681
-1.43057 0.717555 -0.429102
-1.4289 0.71743 -0.420346
-1.37909 0.711212 -0.4247
-1.37118 0.720713 -0.428478
-1.35975 0.72798 -0.422609
-1.40541 0.736344 -0.426621
-1.35338 0.738375 -0.426868
-1.38197 0.755225 -0.424594
-1.33172 0.754047 -0.424278
-1.27254 0.753104 -0.427541
-1.36893 0.767223 -0.429425
-1.30994 0.769294 -0.421693
-1.25447 0.7674 -0.42532
-1.35789 0.774242 -0.422559
-1.30452 0.775411 -0.427321
-1.23612 0.781544 -0.423109
-1.22316 0.784618 -0.426995
-1.28692 0.794297 -0.426189
-1.20446 0.797671 -0.424765
-1.26594 0.810632 -0.424083
-1.23783 0.825496 -0.424712
-1.2201 0.848548 -0.428738
-1.19627 0.859047 -0.429446
-1.19509 0.862092 -0.425688
-1.17417 0.876666 -0.425708
-1.78878 0.450388 -0.41083
-1.79754 0.463577 -0.417765
-1.77645 0.465196 -0.410226
-1.78287 0.470656 -0.412689
-1.69338 0.474765 -0.417141
-1.77413 0.486314 -0.417446
-1.68432 0.482229 -0.418622
-1.66537 0.492827 -0.412061
-1.743 0.507308 -0.413131
-1.65955 0.500648 -0.414442
-1.73517 0.517452 -0.418223
-1.64907 0.510735 -0.417345
-1.71414 0.527048 -0.412058
-1.61983 0.527099 -0.412245
-1.70461 0.537469 -0.414287
-1.70407 0.544167 -0.417307
-1.6128 0.545972 -0.415575
-1.58471 0.562202 -0.410921
-1.58952 0.572618 -0.41612
-1.56251 0.589728 -0.411917
-1.6344 0.595841 -0.41399
-1.57537 0.593885 -0.419875
-1.60309 0.615188 -0.410468
-1.54773 0.611399 -0.415669
-1.52579 0.626474 -0.419701
-1.51833 0.627421 -0.411018
-1.5099 0.639308 -0.41998
-1.50614 0.648097 -0.4177
-1.44471 0.64184 -0.415882
-1.48962 0.660846 -0.417956
-1.47621 0.66358 -0.413088
-1.43137 0.660832 -0.414848
-1.4199 0.664904 -0.417416
-1.46426 0.678864 -0.414636
-1.40711 0.674837 -0.410792
-1.47126 0.687746 -0.419794
-1.40036 0.681182 -0.414846
-1.43692 0.695323 -0.410894
-1.37554 0.694218 -0.410784
-1.44148 0.703401 -0.415605
-1.37299 0.709523 -0.418616
-1.41654 0.721508 -0.412723
-1.3458 0.720844 -0.414048
-1.40316 0.734819 -0.417455
-1.32514 0.735699 -0.411469
-1.33558 0.740993 -0.419036
-1.37866 0.753088 -0.414997
-1.31753 0.757988 -0.41745
-1.35246 0.76976 -0.412135
-1.28983 0.767836 -0.412907
-1.28655 0.783027 -0.418616
-1.27156 0.784035 -0.411327
-1.33057 0.790386 -0.419694
-1.213 0.79186 -0.419249
-1.3033 0.805726 -0.416856
-1.27075 0.801891 -0.417999
-1.24102 0.809913 -0.412974
-1.19926 0.808325 -0.418681
-1.28327 0.827105 -0.416125
-1.22803 0.830444 -0.413342
-1.25867 0.844042 -0.414139
-1.22241 0.840455 -0.419421
-1.18875 0.84599 -0.413448
-1.77231 0.457997 -0.402602
-1.76404 0.473853 -0.407359
-1.74559 0.48634 -0.405558
-1.75303 0.492615 -0.408377
-1.728 0.492615 -0.401534
-1.71086 0.505274 -0.400114
-1.72474 0.514637 -0.404472
-1.6106 0.510385 -0.404322
-1.70549 0.526797 -0.404843
-1.64917 0.529467 -0.400535
-1.60871 0.527126 -0.401895
-1.59992 0.533365 -0.403798
-1.63855 0.543656 -0.405928
-1.59579 0.544948 -0.408507
-1.57826 0.551586 -0.400534
-1.65393 0.566751 -0.404272
-1.57338 0.563319 -0.405223
-1.64753 0.579494 -0.407569
-1.64031 0.58282 -0.409467
-1.62681 0.587851 -0.40116
-1.56882 0.583679 -0.40944
-1.54893 0.580359 -0.401489
-1.54024 0.59902 -0.404802
-1.61541 0.601826 -0.405371
-1.54239 0.609588 -0.409515
-1.58772 0.61837 -0.400543
-1.51353 0.614284 -0.400621
-1.58426 0.624117 -0.403569
-1.51337 0.624667 -0.404877
-1.55496 0.643519 -0.400455
-1.4934 0.644483 -0.405098
-1.46773 0.661991 -0.403978
-1.44162 0.677398 -0.400248
-1.44951 0.68024 -0.409358
-1.37435 0.683558 -0.404214
-1.42421 0.697563 -0.406071
-1.36721 0.705322 -0.4052
-1.35566 0.709595 -0.408227
-1.41436 0.714497 -0.408455
-1.39709 0.713346 -0.402356
-1.33928 0.715902 -0.400134
-1.38492 0.729093 -0.404298
-1.33417 0.723336 -0.405168
-1.38498 0.736045 -0.405347
-1.31261 0.73637 -0.402112
-1.36219 0.746989 -0.40189
-1.36465 0.754816 -0.406546
-1.30428 0.750119 -0.408903
-1.29889 0.754638 -0.401568
-1.28349 0.763905 -0.40634
-1.3392 0.771356 -0.403696
-1.26574 0.779479 -0.404772
-1.32756 0.787049 -0.409699
-1.31543 0.788262 -0.401276
-1.2501 0.797381 -0.408755
-1.24442 0.792919 -0.402212
-1.30573 0.806278 -0.408129
-1.22812 0.81073 -0.406193
-1.28095 0.822128 -0.405721
-1.2526 0.835566 -0.40247
-1.75696 0.455522 -0.393808
-1.76247 0.462919 -0.397499
-1.73307 0.47674 -0.390409
-1.74782 0.480708 -0.399143
-1.73462 0.482966 -0.393263
-1.71576 0.502936 -0.392576
-1.70454 0.515811 -0.398478
-1.60147 0.517164 -0.394519
-1.691 0.520886 -0.390672
-1.6837 0.530435 -0.39787
-1.66805 0.533295 -0.392673
-1.65889 0.548747 -0.393176
-1.58392 0.544423 -0.397734
-1.66239 0.553926 -0.395543
-1.64671 0.567042 -0.397067
-1.56074 0.561812 -0.394031
-1.55086 0.56734 -0.395906
-1.63361 0.57393 -0.391678
-1.62054 0.588175 -0.393967
-1.54112 0.5801 -0.391254
-1.53236 0.58601 -0.393567
-1.52257 0.596024 -0.397307
-1.59513 0.607428 -0.394094
-1.51003 0.602958 -0.390309
-1.49963 0.612458 -0.394035
-1.57214 0.627987 -0.394985
-1.4748 0.627815 -0.390321
-1.55953 0.637615 -0.397434
-1.48991 0.631225 -0.39734
-1.53939 0.644261 -0.390776
-1.46463 0.646192 -0.393617
-1.53253 0.657666 -0.394704
-1.46714 0.65895 -0.398743
-1.52901 0.664258 -0.398103
-1.50557 0.676873 -0.392004
-1.44119 0.674063 -0.395013
-1.50258 0.684808 -0.395761
-1.48142 0.698108 -0.39005
-1.42449 0.69589 -0.396352
-1.47285 0.70253 -0.392695
-1.39708 0.712287 -0.395014
-1.37865 0.731711 -0.393501
-1.31992 0.730207 -0.397594
-1.30192 0.745586 -0.39555
-1.35612 0.750911 -0.39845
-1.28217 0.759346 -0.393012
-1.3375 0.763631 -0.399046
-1.32867 0.764829 -0.394771
-1.27039 0.763086 -0.396506
-1.26235 0.772703 -0.390474
-1.24992 0.776317 -0.393958
-1.31607 0.781701 -0.397085
-1.30754 0.782792 -0.392828
-1.29286 0.798242 -0.394692
-1.28468 0.799246 -0.390465
-1.29284 0.80613 -0.399289
-1.26763 0.813427 -0.391875
-1.26869 0.822125 -0.396899
-1.24727 0.840325 -0.395367
-1.75007 0.447523 -0.386264
-1.74163 0.458355 -0.388613
-1.73385 0.459889 -0.381234
-1.71975 0.466183 -0.38125
-1.71817 0.479129 -0.385228
-1.70176 0.494715 -0.385382
-1.69075 0.498003 -0.381021
-1.68292 0.516792 -0.383205
-1.68187 0.523121 -0.385611
-1.66406 0.54103 -0.386843
-1.64057 0.553722 -0.38885
-1.62959 0.557438 -0.381424
-1.62901 0.568169 -0.388938
-1.61315 0.572864 -0.385033
-1.5989 0.586869 -0.384712
-1.60634 0.59414 -0.388207
-1.58877 0.593622 -0.382015
-1.51403 0.594946 -0.38664
-1.5705 0.605404 -0.380896
-1.57718 0.612851 -0.384368
-1.4904 0.610697 -0.38294
-1.48227 0.616938 -0.385687
-1.56762 0.628416 -0.387812
-1.55297 0.633644 -0.381692
-1.45793 0.631661 -0.381979
-1.54434 0.649501 -0.385518
-1.44981 0.642592 -0.386601
-1.43739 0.659916 -0.389447
-1.42828 0.658386 -0.383789
-1.51196 0.664048 -0.384527
-1.40983 0.675851 -0.381892
-1.48866 0.684052 -0.385822
-1.42374 0.68069 -0.388885
-1.39991 0.694823 -0.385623
-1.46387 0.703595 -0.383553
-1.39746 0.707252 -0.38981
-1.37389 0.708201 -0.381922
-1.45412 0.716295 -0.387377
-1.43872 0.722947 -0.381291
-1.37774 0.724818 -0.387887
-1.35458 0.724863 -0.380012
-1.4266 0.73394 -0.38471
-1.35487 0.739416 -0.385072
-1.35173 0.74559 -0.389792
-1.40025 0.752539 -0.382439
-1.32998 0.752973 -0.381812
-1.32813 0.760746 -0.386982
-1.30928 0.778691 -0.385487
-1.28368 0.792091 -0.382247
-1.26271 0.808359 -0.380322
-1.26311 0.816352 -0.388536
-1.24388 0.829278 -0.389506
-1.23083 0.824486 -0.383575
-1.77099 0.469763 -0.374601
-1.80001 0.475107 -0.371868
-1.79664 0.479688 -0.372892
-1.69462 0.475396 -0.374168
-1.78839 0.489484 -0.375069
-1.68745 0.483471 -0.375824
-1.6758 0.496417 -0.371646
-1.76732 0.508167 -0.37649
-1.66812 0.503829 -0.37329
-1.75617 0.51107 -0.371475
-1.66132 0.515507 -0.376405
-1.63724 0.534479 -0.3754
-1.62578 0.555396 -0.375995
-1.59847 0.568289 -0.370603
-1.60472 0.578158 -0.376505
-1.58219 0.596994 -0.375403
-1.57438 0.595274 -0.370395
-1.5642 0.613848 -0.379005
-1.5562 0.615414 -0.371998
-1.54553 0.625082 -0.377867
-1.53255 0.629749 -0.374439
-1.46472 0.625337 -0.378785
-1.51847 0.643616 -0.374461
-1.50595 0.647904 -0.371049
-1.44604 0.642691 -0.376459
-1.4336 0.645854 -0.378272
-1.52723 0.652402 -0.378655
-1.4274 0.659136 -0.374144
-1.49807 0.665257 -0.372607
-1.41776 0.663985 -0.376851
-1.50268 0.67218 -0.37601
-1.39297 0.677414 -0.373148
-1.48336 0.682618 -0.377911
-1.47123 0.687487 -0.37183
-1.38802 0.690773 -0.379085
-1.37837 0.696005 -0.372174
-1.46455 0.705307 -0.376787
-1.37266 0.709469 -0.378096
-1.44021 0.724692 -0.374536
-1.34699 0.72173 -0.374391
-1.32622 0.73657 -0.372042
-1.41224 0.740919 -0.375103
-1.33522 0.740905 -0.378116
-1.38512 0.7573 -0.376058
-1.31222 0.754631 -0.375315
-1.30491 0.765978 -0.378558
-1.28939 0.767669 -0.372518
-1.36094 0.776333 -0.374214
-1.28624 0.782929 -0.377097
-1.26788 0.781594 -0.370182
-1.33976 0.797389 -0.37313
-1.26416 0.797241 -0.37475
-1.31227 0.812815 -0.370552
-1.11928 0.881213 -0.376714
-1.792 0.451337 -0.360841
-1.80283 0.465344 -0.365723
-1.7862 0.471596 -0.361316
-1.77391 0.485822 -0.364202
-1.76941 0.497216 -0.368292
-1.767 0.502476 -0.369644
-1.74751 0.507007 -0.363357
-1.73674 0.517704 -0.364404
-1.61895 0.513619 -0.36417
-1.73226 0.521045 -0.365438
-1.72906 0.534591 -0.368892
-1.62446 0.532885 -0.363722
-1.71308 0.541489 -0.362204
-1.7039 0.54346 -0.362556
-1.61735 0.540211 -0.365742
-1.61142 0.551501 -0.369251
-1.59364 0.557925 -0.362393
-1.58512 0.568498 -0.365461
-1.57168 0.585092 -0.366822
-1.56766 0.588883 -0.363727
-1.5501 0.603774 -0.364254
-1.54884 0.612732 -0.367014
-1.52327 0.619142 -0.360482
-1.52312 0.629608 -0.363628
-1.52669 0.63154 -0.367807
-1.5022 0.649638 -0.364819
-1.49732 0.645913 -0.360258
-1.47842 0.666187 -0.364755
-1.39961 0.671293 -0.369525
-1.47086 0.682406 -0.369224
-1.45768 0.684672 -0.365492
-1.38402 0.688867 -0.368126
-1.44659 0.703531 -0.367912
-1.43564 0.704028 -0.363306
-1.36482 0.70428 -0.365814
-1.3551 0.709453 -0.368938
-1.42243 0.719193 -0.364024
-1.34522 0.719527 -0.363492
-1.4212 0.724279 -0.366587
-1.34181 0.728132 -0.368422
-1.39457 0.734919 -0.360658
-1.32419 0.732917 -0.360715
-1.39943 0.743777 -0.364755
-1.3185 0.740227 -0.365191
-1.38012 0.753875 -0.367418
-1.37244 0.759877 -0.361775
-1.30537 0.750992 -0.369706
-1.2829 0.763665 -0.366912
-1.35691 0.772822 -0.365576
-1.33518 0.792526 -0.364136
-1.31006 0.809442 -0.36194
-1.15315 0.86942 -0.361139
-1.14185 0.883467 -0.364285
-1.12238 0.886653 -0.365406
-1.12188 0.897473 -0.362854
-1.77726 0.459591 -0.354746
-1.77786 0.465452 -0.359294
-1.76518 0.463871 -0.350889
-1.75973 0.472167 -0.356334
-1.74697 0.483468 -0.352862
-1.75626 0.493595 -0.357464
-1.73652 0.495664 -0.353593
-1.73965 0.50737 -0.35767
-1.71939 0.508434 -0.351653
-1.72247 0.513329 -0.352944
-1.71211 0.52755 -0.356673
-1.67663 0.54331 -0.354349
-1.5976 0.549702 -0.359553
-1.6388 0.558392 -0.356978
-1.65524 0.567031 -0.35255
-1.57795 0.56866 -0.357045
-1.64715 0.578758 -0.354513
-1.56611 0.573867 -0.358214
-1.64172 0.583104 -0.355874
-1.54906 0.583537 -0.352462
-1.63287 0.592564 -0.354698
-1.5439 0.591188 -0.355274
-1.62077 0.600531 -0.352016
-1.61451 0.60473 -0.353362
-1.53507 0.603051 -0.35496
-1.60615 0.6166 -0.356451
-1.52856 0.611485 -0.353975
-1.51454 0.619781 -0.356186
-1.59739 0.623835 -0.350195
-1.50463 0.638835 -0.35874
-1.48772 0.63443 -0.35241
-1.47747 0.653077 -0.354977
-1.47499 0.66322 -0.357686
-1.45181 0.667889 -0.351615
-1.45437 0.682933 -0.357394
-1.43629 0.687907 -0.350693
-1.43467 0.699561 -0.353774
-1.43483 0.704044 -0.357483
-1.40658 0.716514 -0.35444
-1.38871 0.738735 -0.355469
-1.28769 0.737311 -0.353827
-1.37001 0.751857 -0.358079
-1.36394 0.75458 -0.352723
-1.33462 0.768658 -0.351907
-1.34845 0.774187 -0.357929
-1.32197 0.785639 -0.353343
-1.32131 0.79235 -0.356618
-1.30016 0.811435 -0.355198
-1.19815 0.820507 -0.352165
-1.20259 0.833027 -0.356147
-1.18428 0.832725 -0.357517
-1.17867 0.833375 -0.350297
-1.16561 0.846712 -0.356089
-1.15594 0.841773 -0.357625
-1.16514 0.850693 -0.350255
-1.14978 0.862858 -0.355574
-1.1354 0.87981 -0.355512
-1.13071 0.880537 -0.358814
-1.11036 0.8877 -0.352289
-1.11407 0.896443 -0.358292
-1.11042 0.918868 -0.350555
-1.14522 0.92708 -0.350647
-1.74494 0.446191 -0.340935
-1.7558 0.455221 -0.347622
-1.7385 0.45746 -0.343073
-1.73562 0.477718 -0.345305
-1.71866 0.479438 -0.340775
-1.73172 0.481929 -0.34604
-1.71388 0.5022 -0.34508
-1.69648 0.512538 -0.347709
-1.65148 0.513322 -0.340607
-1.69553 0.522604 -0.344097
-1.65445 0.527637 -0.341502
-1.69572 0.535438 -0.349805
-1.6456 0.531769 -0.343915
-1.62677 0.530773 -0.348071
-1.66628 0.553573 -0.345716
-1.64874 0.55706 -0.342267
-1.65146 0.569056 -0.347216
-1.6317 0.569181 -0.340624
-1.64175 0.577541 -0.343559
-1.62508 0.590219 -0.344427
-1.59886 0.607639 -0.34665
-1.60217 0.612377 -0.342339
-1.50523 0.617394 -0.346616
-1.58061 0.621167 -0.349582
-1.57491 0.629263 -0.344559
-1.49523 0.623195 -0.348569
-1.48298 0.63384 -0.343694
-1.47429 0.63979 -0.34605
-1.56568 0.641055 -0.346737
-1.55949 0.646004 -0.348414
-1.54206 0.645548 -0.340811
-1.45878 0.648939 -0.340367
-1.53198 0.65683 -0.342972
-1.46605 0.651159 -0.349874
-1.44972 0.654171 -0.342703
-1.53023 0.664549 -0.345643
-1.44609 0.668091 -0.347742
-1.42857 0.669806 -0.340187
-1.50821 0.678224 -0.3412
-1.50216 0.683962 -0.343206
-1.42575 0.684844 -0.345613
-1.40368 0.699949 -0.343075
-1.47388 0.702814 -0.340787
-1.41232 0.702191 -0.347751
-1.38607 0.715686 -0.3444
-1.36162 0.729406 -0.341463
-1.38845 0.73148 -0.34867
-1.36042 0.743025 -0.344929
-1.33717 0.766629 -0.346468
-1.30035 0.777963 -0.347023
-1.26173 0.776312 -0.342301
-1.21955 0.796867 -0.347775
-1.22337 0.811449 -0.348501
-1.20727 0.81453 -0.347753
-1.18846 0.827436 -0.345905
-1.1679 0.839024 -0.343591
-1.2178 0.846853 -0.340856
-1.15348 0.854743 -0.343114
-1.20415 0.867249 -0.342035
-1.14538 0.862895 -0.3484
-1.13141 0.86398 -0.340345
-1.1243 0.873058 -0.346083
-1.1912 0.889036 -0.343563
-1.1844 0.886474 -0.340143
-1.17819 0.889453 -0.344809
-1.11807 0.880552 -0.340326
-1.10577 0.88576 -0.344683
-1.1669 0.90306 -0.341447
-1.1621 0.91101 -0.344965
-1.15304 0.927642 -0.340237
-1.72489 0.457563 -0.335806
-1.71646 0.465341 -0.336837
-1.69863 0.476876 -0.332092
-1.69145 0.484998 -0.333473
-1.69853 0.493624 -0.339746
-1.68936 0.49763 -0.336655
-1.66838 0.504125 -0.330468
-1.68348 0.51709 -0.33852
-1.65984 0.515082 -0.332549
-1.67702 0.521228 -0.338853
-1.64477 0.533099 -0.336084
-1.63748 0.560756 -0.336554
-1.62894 0.560689 -0.33313
-1.62288 0.577069 -0.339219
-1.61015 0.579287 -0.333156
-1.60622 0.585112 -0.33418
-1.61079 0.596071 -0.339778
-1.59128 0.594683 -0.33512
-1.58451 0.598025 -0.330106
-1.57841 0.60905 -0.334483
-1.58498 0.616619 -0.337029
-1.55954 0.611532 -0.331041
-1.5651 0.626689 -0.337566
-1.55148 0.627911 -0.331431
-1.55213 0.632913 -0.332923
-1.54183 0.64773 -0.335503
-1.53488 0.656377 -0.331904
-1.51535 0.665811 -0.33559
-1.43649 0.663822 -0.337448
-1.41557 0.679599 -0.334937
-1.49113 0.685372 -0.336349
-1.48746 0.684872 -0.33005
-1.41396 0.688946 -0.339311
-1.48406 0.699503 -0.339435
-1.37523 0.694453 -0.332683
-1.46471 0.703828 -0.333977
-1.45502 0.716538 -0.336706
-1.37805 0.712853 -0.339737
-1.43945 0.723177 -0.331946
-1.42904 0.735365 -0.334647
-1.3026 0.735158 -0.333971
-1.40412 0.755168 -0.332914
-1.29759 0.77381 -0.332079
-1.27812 0.788456 -0.330379
-1.2825 0.792095 -0.334603
-1.27095 0.802219 -0.335991
-1.26394 0.807829 -0.333297
-1.21533 0.804902 -0.330024
-1.25356 0.819443 -0.335074
-1.23103 0.833013 -0.332956
-1.23056 0.846782 -0.337384
-1.21618 0.852222 -0.332841
-1.21049 0.863171 -0.336052
-1.18586 0.875274 -0.333551
-1.16256 0.888387 -0.331443
-1.15747 0.897915 -0.337263
-1.14351 0.904848 -0.330526
-1.13806 0.944432 -0.332318
-1.67417 0.496148 -0.328737
-1.6211 0.527878 -0.326627
-1.60848 0.523039 -0.327229
-1.61541 0.534776 -0.321802
-1.62156 0.549837 -0.329944
-1.60976 0.550962 -0.326156
-1.59372 0.558146 -0.320761
-1.59326 0.56613 -0.32621
-1.587 0.569453 -0.323512
-1.57724 0.58771 -0.324999
-1.57648 0.596289 -0.326707
-1.55379 0.605617 -0.322341
-1.5527 0.614619 -0.324042
-1.54957 0.612205 -0.325314
-1.53319 0.629968 -0.328017
-1.53578 0.636051 -0.324748
-1.52687 0.631525 -0.321026
-1.5296 0.649254 -0.329413
-1.51343 0.651683 -0.326386
-1.50598 0.651575 -0.321026
-1.49173 0.661666 -0.324314
-1.48494 0.668107 -0.323031
-1.50507 0.673321 -0.328512
-1.47475 0.684461 -0.323346
-1.45978 0.685783 -0.320368
-1.38251 0.68831 -0.329538
-1.48194 0.693618 -0.326486
-1.4636 0.704429 -0.328022
-1.45127 0.706171 -0.322063
-1.43928 0.723789 -0.326001
-1.42508 0.726516 -0.320427
-1.31531 0.738462 -0.326381
-1.4137 0.741665 -0.326793
-1.29251 0.742718 -0.327684
-1.38638 0.758018 -0.324291
-1.31269 0.752605 -0.323249
-1.30647 0.759904 -0.32715
-1.27672 0.759146 -0.329847
-1.29783 0.769567 -0.3224
